ncols        185
nrows        75
xllcorner    212862.06684
yllcorner    2561677.49209
cellsize     20.000000000000
NODATA_value  -3.4028234663852885981e+38
361.58 360.92 360.26 359.32 358.18 357.05 355.7 357.06 359.07 360.21 360.72 361.21 361.41 360.79 360.22 359.36 358.96 360.07 360.93 362.79 363.1 363.89 366.07 367.33 368.59 369.36 369.44 371.09 373.13 371.38 376.76 383.7 384.27 389.37 395.1 400.37 403.6 404.27 403.68 411.95 414.48 421.08 427.06 431.77 436.03 438.91 449.99 453.88 452.29 451.09 446.86 433.21 423.45 424.89 436.97 446.05 450.6 459.58 465.78 471.62 477.57 483.36 488.17 487.81 485.27 484.89 485.3 487.9 498.07 505.8 507.53 511.19 519.1 525.36 543.73 548.61 550.92 552.66 555.31 560.48 567.33 578.21 582.32 587.15 597.67 615.25 629.53 636.33 644.82 658.54 669.18 680.84 694.47 704.25 713.89 721.72 732.99 743.65 754.55 764.94 771.03 748.06 734.12 722 727.91 730.09 728.35 718.33 706.01 693.98 683.06 680.86 697.18 717.07 734.64 751.03 754.51 751.67 739.33 726.73 717.36 722.93 734.33 747.12 760.13 770.24 779.75 774.23 745.33 727.6 732.46 736.69 738.96 748.82 756.91 762.44 764.71 768.62 773.84 775.59 775.38 777.35 783.8 793.34 804.79 817.19 825.97 831.69 836.8 839.42 843.11 845.62 845.13 846.68 859.2 878.76 891.35 898.19 901.7 902.79 902.54 896.19 882.68 884.52 896.89 904.33 912.27 921.04 925.09 925.42 916.57 909.23 911.01 916.91 926.49 931.35 933.24 932.52 936.81 927.52 917.52 913.95 912.31 905.44 902.4
362.28 361.68 361.02 360.35 359.41 358.16 356.54 356.55 358.18 359.72 360.41 360.89 361.43 361.12 360.75 359.78 358.65 359.78 363.23 364.41 364.85 365.63 366.76 368.12 368.08 367.72 368.52 369.61 370.59 372.46 381.28 392.97 395.82 398.76 403.1 406.64 410.47 412.93 415.07 417.12 419.61 423.43 428.06 431.97 435.63 440.97 449.54 455.4 459.24 460.51 454.36 443.01 438.44 437.42 435.55 436.95 438.08 444.65 447.6 449.91 454.8 466.3 471.35 471.54 471.63 470.55 474.88 487.08 498.12 500.8 501.32 505.08 512.47 520.04 531.73 535.46 537.3 540.02 550.61 564.1 572.28 580.64 587.87 596.79 607.05 624.91 629.78 638.26 649.45 660.63 669.58 678.88 690.98 700.44 707.86 715.21 722.95 734.51 742.87 749.9 763.65 760.45 748.36 739.78 740.4 743.06 738.94 724.88 712.51 703.7 695.89 685.6 695.68 713.56 727.21 745.73 760.2 764.38 757.29 746.07 729.62 732.37 740.21 751.46 763.28 774.85 785.28 779.06 753.72 733.18 737.83 741.07 742.67 751.96 761.78 769.06 774.04 779.24 784.18 786.79 786.9 788.06 792.4 799.19 814.67 828.33 834.89 842.08 849.36 852.07 857.64 861.84 859.91 854.51 861.49 878.61 894.18 905.66 910.88 912.86 913.55 910.98 900.79 891.15 904.64 913.83 920.17 930.2 937.2 936.57 930.53 921.98 922.01 930.02 936.68 943.58 945.53 943.41 944.02 937.2 932.3 933.63 931.5 919.57 910.31
361.9 362.47 361.76 361.25 360.46 359.12 357.63 356.24 357.46 358.94 360.11 360.64 361.21 361.6 361.66 360.38 358.96 359.47 363.58 365.74 365.93 366.79 366.9 366.5 366.04 366.3 367.17 367.96 370.5 372.82 374.85 392.28 397.81 401.83 405.21 409.07 413.71 418.61 422.12 425.31 426.71 427.69 429.2 433.5 437.93 444.12 453.58 460.29 462.82 466.54 464.15 454.01 453.27 452.12 449.16 448.37 456.2 450.65 455.18 465.04 470.24 463.91 464.09 472.8 474.11 469.98 469.45 479.47 486.4 487.71 489.75 498.08 508.72 512.73 517.92 525.67 529.81 539.76 552.13 568.54 582.74 589.7 597.94 607.01 616.64 622.95 627.23 639.85 652.92 662.4 670.4 679.63 689.27 700 706.6 716.06 727.42 729.95 734.17 741.95 750.8 761.76 763.87 756.58 753.82 755.5 752.62 738.77 726.23 719.68 712.13 697.67 694.42 709.85 724.59 740.67 758.13 773.3 779.05 771.04 752.61 748.43 753.78 760.57 772.22 783.38 791.3 787.63 770.83 744.76 741.94 748.54 754.7 756.32 764.46 773.28 781.49 788.42 793.36 796.51 798.76 799.44 802.83 810.04 824.48 836.26 843.85 851.33 860.27 864.92 874.61 879.86 878.53 870.9 870.38 882.88 895.87 908.71 917.46 922.97 925.46 925.7 918.09 902.26 907.31 919.87 929.13 940.23 950.25 951.89 943.97 937.7 937.45 942.66 951.13 956.05 956.41 953.44 951.74 948.75 948.89 949.46 945.61 934.94 922.48
362.42 362.8 362.64 362.43 361.3 360.07 358.52 356.67 357.09 358.76 359.68 360.43 361.35 361.92 360.94 359.58 358.85 359.26 360.91 365.85 365.85 365.79 365.31 364.21 365.36 366.47 367.83 369.15 371.1 373.19 374.5 381.96 393.03 401.34 405.12 410.46 417.58 423.24 427.58 432 432.55 432.56 433.5 436.56 441.85 450.51 457.34 461.82 464.62 468.47 473.71 465.91 466.21 462.4 457.85 461.16 468.55 463.72 456.8 475.06 481.72 478.59 475.16 484.92 485.65 479.6 475.45 474.39 477.83 481.53 484.03 491.38 502.92 510.06 516.13 522.94 535.4 545.79 553.56 568.69 584.78 594.8 600.41 610.07 618.39 622.59 625.87 640.57 652.76 660.23 667.95 677.74 687.44 696.93 707.49 719.56 727.33 738.43 741.4 742.28 745.56 754.92 765.79 771.85 771.23 771.77 766.44 752.27 740.34 736.66 729.06 713.4 697.38 714.7 729.92 745.08 760.59 776.63 791.04 796.43 784.31 772.62 772.63 774.97 784.82 794.27 801.96 794.34 786.08 764.22 748.24 759.41 771.63 774.76 769.83 777.78 788.03 796.25 802.86 808.3 811.19 813.53 815.88 820.99 832.84 843.77 853.51 861.15 869.81 877.33 884.82 895.43 900.24 888.56 878.62 884.46 895.4 908.45 919.9 927.72 930.87 931.28 929.42 913.72 908.63 922.96 935.62 947.13 959.7 967.5 962.37 953.69 954.22 958.47 961.62 964.3 967.53 968.87 967.67 964.12 965.62 967.31 962.53 953.74 942.71
362.78 363.36 363.27 362.42 361.56 360.7 359.18 357.87 357.56 358.35 359.24 360.07 361.04 362.16 361.09 359.91 359.33 358.83 359.58 361.69 364.52 363.9 362.7 365.71 366.67 367.81 369.02 371.18 372.06 373.28 373.38 374.56 386.91 394.42 401.71 409.96 414.25 418.84 424.64 429.92 436.5 438.13 439.87 442.32 447.2 457.87 461.31 463 464.42 468.95 480.21 480.35 477.48 472.86 467.83 472.45 477.6 476.22 464.09 474.67 485.42 487.91 488.41 497.1 498.24 490.53 487.7 490.48 493 493.71 492.47 487.79 498.31 511.58 520.86 525.33 530.1 539.61 552.02 563.9 580.27 591.82 598.36 608.21 614.7 619.72 623.88 634.43 649.33 657.75 665.48 675.12 683.63 693.38 706.14 713.18 720.2 727.71 741.3 745.93 747.26 751.22 760.74 771.29 780.84 782.01 779.32 772.98 761.38 754.29 738.63 728.85 711.47 728.41 737.83 749.14 761.67 776.9 793.28 807.18 810.87 799.75 786.59 801.29 808.2 813.86 815.48 806.39 804.45 787.67 776.24 777.67 791.12 793.74 784.05 781.52 791.81 803.47 811.82 817.93 823.02 827.93 834.54 836.75 841.06 851.27 861.23 870.12 880.64 885.39 892.85 903.43 908.19 902.23 892.69 889.33 893.86 906 916.18 927.45 931.06 933.39 931.65 922.99 911.06 922.14 936.98 950.67 964.93 978.16 980.33 972.97 970.04 972.16 973.42 974.63 979.03 984.83 985.19 981.59 984.72 985.53 977.27 966.21 957.01
362.79 363.75 363.08 362.24 361.4 360.63 360.29 358.82 357.81 358.1 358.89 359.63 360.59 361.79 361.84 360.85 360.02 359.55 358.8 360.23 362.2 361.37 363.26 364.69 364.38 366.17 367.88 369.56 371.39 371.44 370.34 370.33 379.15 390.96 396.46 403.41 409.61 415.29 424.35 432.87 439.78 443.62 446.04 450.44 456.77 455.85 456.85 460.84 463.05 466.62 472.54 482.22 483.47 482.03 481.25 483.62 484.74 484.12 481.93 477.43 486.21 493.39 499.91 502.14 502.81 499.64 500.14 500.33 502.17 501.51 502.4 501.1 494.65 504.06 524.79 536.54 541.84 542.4 550.6 558.35 575.28 585.52 595.02 601.01 609.94 615.78 621.52 629.31 643.63 654.96 666.25 675.47 683.18 688.63 697.34 705.82 711.82 719.96 729.29 740.31 744.77 750.64 757.85 766.97 779.32 787.39 789.38 786.73 780.71 770.44 749.07 741.24 725.81 734.34 745.52 756.28 766.32 779.79 796.07 812.93 824.25 827.25 806.2 807.12 814.46 823.61 829.45 827.66 817.74 806.47 799.93 800.43 805.13 810.99 804.2 792.66 794.14 808.65 818.21 825.15 833.2 842.98 853.63 856.6 853.99 858.47 866.83 877.24 889.48 894.7 899.59 911.06 917.16 910.05 903.54 901.01 899.8 902.39 912.44 923.39 930.26 933.61 933.68 929.77 919.43 921.07 937.45 953.77 969.37 984.34 991.96 993.84 990.38 988.5 987.36 989.5 999.14 1003.6 1001.4 1000.8 1003 1001.2 991.96 979.88 972.67
363.94 363.89 363.05 362.21 361.5 361.27 360.26 359.38 358.32 357.92 358.49 359.25 360.04 361.25 362.46 361.88 361.79 360.98 360.03 359.34 360.26 361.49 362.32 363.15 363.58 365.47 367.14 368.74 370.25 371.38 369.73 369.07 371.89 384.37 392.89 400.04 406.2 413.87 421.29 433.82 441.97 446.79 449.2 456.06 459.95 461.11 458.87 454.38 460.17 465.09 468.23 477.82 486.81 487.28 488.86 492.25 494.35 495.6 494.25 490.3 492.32 499.69 504.92 505.66 507.65 508.92 510.42 510.78 508.82 505.92 506.99 509.19 503.64 501.8 511.95 525.8 546.14 560.76 560.44 560.76 575.61 582.77 592.1 600.59 606.11 613.02 619.48 627.67 638.59 651.79 661.18 670.04 676.8 682.29 687 692.98 703.06 712.11 724.73 736.3 746.57 754.53 761.09 764.19 774.66 785.77 794.57 798.13 792.6 781.47 767.15 751.16 739.09 737.74 747.63 761.66 772.3 786.93 803.29 820.93 834.02 841.72 837.87 826.6 831.6 837.17 844.61 843.16 831.52 824.84 818.64 819.56 816.78 824.96 826.37 815.64 800.87 810.8 822.8 832.45 841.06 853.89 864.36 873.12 868.02 863.73 871.6 886.06 899.91 906.34 911.46 923.88 928.93 920.61 912.66 908.62 915.83 917.3 913.64 920.93 928.37 934.85 937.96 935.61 927.79 922.12 938.59 957.61 975.7 990.43 1005.5 1011.7 1008.1 1005.9 1008.7 1008.5 1012.9 1018.7 1017.5 1014.1 1020 1015.8 1005.3 994.97 984.53
364.33 363.86 363.02 362.38 362.12 361.14 360.92 360.01 359.28 358.54 358.12 358.87 359.63 360.61 361.78 362.89 363.27 362.02 361.52 360.81 360.46 361.42 362.39 363.22 364.13 365.12 366.89 368.82 369.38 369.64 368.98 369.05 369.86 374.76 388.06 396.91 405.51 409.08 414.61 428.04 440.94 448.1 455.85 460.2 461.53 461.93 461.04 460.56 458.8 458.24 463.12 468.12 484.93 490.96 499.34 504.07 508.07 512.33 510.83 505.27 507.77 512.13 514.6 517.45 519.55 519.34 525.7 526.97 522.97 513.58 512.71 521.13 518.86 515.17 507.5 516.66 524.94 542.21 555.43 568.13 580.09 587.73 596.27 601.5 607.36 613.86 619.59 626.03 633.1 644.7 650.5 654.32 662.36 673.85 685.39 696.58 707.71 718.04 728.21 737.71 751.26 763.89 767.03 770.7 775.66 785.53 794.64 803.21 802.75 791.85 774.55 760.75 752.85 746.25 753.08 764 776.09 791.53 809.85 828.4 841.82 852.29 857.37 843.9 847.49 859.62 865.46 866.81 851.28 856.58 846.26 835.89 829.44 832.59 836.03 832.13 825.01 816.11 827.53 839.19 848.44 858.81 869.54 882.74 884.62 877.78 878.72 894.71 908.61 918.82 928.1 934.94 939.61 930.96 924.04 919.3 920.86 928.71 929.9 925.06 929.93 936.92 941.48 941.18 935.47 924.19 937.65 957.38 977.07 996.84 1013.2 1026.2 1025.1 1023.5 1032 1034.9 1033.3 1037 1034.3 1030.9 1037.4 1027.7 1017.8 1002.2 995.47
364.55 363.83 363.26 362.97 362.06 361.95 361.11 360.38 359.7 358.97 358.25 358.47 359.22 359.96 361.08 362.35 363.5 362.96 362.36 361.61 360.88 361.93 362.35 363.55 365.02 366.67 367.12 367.58 368.03 368.31 367.96 369.06 371.28 373.47 378.11 390.52 396.65 400.86 411.05 421.78 433.46 444.86 455.98 460.95 461.8 462.93 462.67 462.26 461.62 460.87 460.1 464.48 478.26 485.05 494.26 503.71 512.23 521.84 525.36 523.78 521.29 526.63 527.75 530.78 531.53 532.77 536.2 538.58 540.22 535.03 525.69 530.85 530.84 525.56 518.19 513.09 518.62 523.3 535.16 549.59 570.98 581.97 586.87 592.38 597.9 604.63 614.26 618.92 624.26 625.5 634.08 648.26 664.04 679.5 693.71 705.64 716.83 724.21 735.13 742.59 755.62 771.44 777.74 779.34 782.72 788.79 796.25 805.33 813.31 805.58 787.4 771.55 767.2 759.53 768.92 776.34 784.91 796.62 815.79 834.46 848.93 860.46 870.01 869.94 857.68 872.42 883.18 885.28 885.33 880.32 863.91 851.77 842.2 837.61 843.76 845.93 839.76 832.45 834.21 844.41 855.94 864.91 876.39 888.65 899.83 890.79 897.69 901.5 914.59 928.1 938.13 947.81 952.36 946.77 942.88 934.73 924.56 929.75 937.61 937.62 935.51 940.01 945.25 945.93 941.74 932.01 937.75 955.64 974.29 993.49 1011.6 1028.8 1040.2 1041.2 1050.6 1057.1 1058.6 1057.1 1051.8 1049.5 1054.1 1043.2 1032.2 1018.2 1011.7
364.64 364.14 363.81 362.99 362.94 362.21 361.36 361.07 360.2 359.43 358.69 358.09 358.84 359.56 360.41 361.6 362.81 363.89 363.16 362.42 361.69 362.03 363.4 363.92 364.37 365.18 365.69 366.2 366.71 367.46 368.43 368.24 370.14 372.2 373.13 379.1 389.15 396.88 401.38 413 426.25 436.7 448.35 459.04 461.14 462.57 464 463.95 463.6 463.21 462.59 464.3 473.5 480.37 484.76 494.6 505.89 518.44 526.33 531.54 533.42 536.07 538.7 541.97 542.79 543.66 546.57 549.79 555.08 552.36 546.83 541.98 538.77 535.14 529.84 522.57 526.11 531.93 534.45 539.01 556.2 570.66 576.26 581.93 587.43 592.47 597.7 599.93 605.87 618.35 633.02 650.2 666.88 686.26 702.15 715.45 721.91 731.8 738.36 745.29 756.23 773.21 787.38 790.32 792.24 796.38 802.73 810.02 817.69 821.86 807.62 792.85 786.56 777.99 783.75 797.97 805.83 816.14 828.95 842.53 857.41 869.82 879.74 888.68 882.3 884.81 892.9 899.38 899.04 889.18 875.22 864.08 852.65 846.05 849.22 859.43 866.47 848.28 844.31 847.4 859.68 869.66 880.95 893.22 908.03 899.59 911.46 921.73 930.39 939.89 949.2 959.06 966.46 961.36 957.13 953.85 943.28 938.33 940.81 944.31 942.99 943.33 950.96 951.98 946.69 939.31 940.25 952.57 969.37 987.54 1008.4 1030.8 1050.7 1057.4 1066.1 1073.9 1079.3 1076 1068.5 1068.8 1070.5 1061.7 1049 1038.4 1029.9
364.98 364.66 363.91 363.91 363.24 362.35 362.49 361.7 360.81 359.74 358.63 358.07 358.43 359.11 359.8 360.88 362.05 363.52 363.95 363.22 362.49 362.13 363.5 364.88 366.01 366.45 366.98 367.52 368.03 368.66 369.49 370.01 370.33 371.4 373.15 374.82 383.91 392.7 397.24 404.67 419.89 432.71 442.77 456.33 460.87 462.31 463.74 465.19 465.63 465.72 465.15 464.71 470.26 473.86 478.71 486.02 496.27 511.34 519.22 525.36 531.47 537.42 545.35 550.14 554.02 556.41 559.43 563.93 565.74 562.08 557.59 553.39 548.84 544.81 540.69 536.96 538.71 544.87 548.53 546.87 545.13 554.82 562.86 567.52 573.21 579.89 588.1 599.34 612.65 627.41 642.71 660.63 678.46 696.73 708.57 717.79 726.23 735.44 739.17 743.63 749.96 764.18 780.27 793.18 802.52 807.83 812.66 819.19 826.61 830.4 827.79 816.29 808.28 797.98 796.54 807.77 820.21 829.55 838.24 850.59 868.04 880.22 890.09 899.19 906.79 909.55 916.4 920.49 911.52 899.08 887.76 875 862.12 856.11 857.6 868.96 882.74 880.79 871.15 863.94 865.1 874.92 884.51 896.45 913.99 911.25 918.63 936.17 951.3 955.18 959.11 969.44 980.21 977.77 969.63 969.27 962.16 950.23 952.8 949.71 951.11 949.78 954.24 956.79 951.13 946.49 946.87 951.47 967.22 986.2 1007.8 1032.7 1050.9 1064.3 1077.8 1090.1 1099.5 1096.8 1090 1086.4 1084.9 1078.8 1069 1059.8 1046.1
372.68 366.76 364.82 364.26 363.34 363.63 363.18 362.39 361.36 360.26 359.25 358.76 358.24 358.6 359.35 360.13 361.43 362.9 364.37 364.02 363.3 362.54 363.54 364.42 365.39 366.69 367.72 368.74 369.34 370 370.8 371.19 371.46 371.72 372.4 373.42 376.88 387.01 393.69 401.83 416.98 429.51 440.01 455.55 460.83 462.2 463.71 465.41 467 467.38 467.46 467.84 470.61 473.36 477.27 483.64 495.79 504.78 510.2 516.61 522.17 529.01 537.15 544.14 550.46 553.5 556.92 560.1 561.56 561.08 560.79 559.6 556.68 555.95 555 553.03 550.97 553.69 556.44 563.11 561.41 559.55 563.04 571.81 577.61 583.95 593.88 605.04 623.04 638.44 652.25 667.01 684.53 701.58 711.48 720.11 725.17 732.22 735.85 737.99 743.51 753.45 768.38 783.08 796.35 810.4 820.52 826.58 831.55 836.44 839.42 837.53 831.52 824.18 816.3 815.08 824.98 834.26 843.93 859.27 876.39 886.18 895.16 906.28 916.82 925.49 930.42 932.34 922.44 908.85 901.58 883.8 872.28 867.23 864.8 871.06 886.65 896.62 896.17 887.42 877.72 885.31 891.84 900.88 919.15 925.9 923.66 944.09 956.74 964.43 967.96 977.46 988.58 989.09 984.87 981.81 978.4 971.35 968.48 961.96 962.61 960.3 960.15 961 954.97 951.65 954.61 960.42 973.63 992.06 1011.5 1031.1 1047.1 1062.9 1081.8 1100.6 1112 1115.5 1114.9 1109.3 1098.7 1088.5 1082.8 1075 1054.5
378.84 371.71 366.49 364.67 364.74 364.65 363.99 363.09 362.16 361.16 360.06 359.44 358.85 358.15 358.62 359.43 360.8 362.36 363.75 364.82 364.12 363.39 363.31 363.85 364.77 365.87 366.95 368.05 368.86 370.22 371.81 372.32 372.58 372.84 373.1 373.63 375.81 381.98 391.67 400.94 415.78 427.08 440.18 456.1 461.42 463.29 464.12 465.81 467.36 468.18 468.96 469.45 471.67 473.46 477.4 486.03 496.69 502.14 506.49 510.91 515.27 521.31 529.51 533.43 536.64 540.19 543.96 548.14 552.79 552.92 551.75 551.83 553.65 555.67 559.47 563.06 564.54 563.67 565.08 572.34 575.95 576.11 578.17 582.48 587.92 592.93 603.27 611.07 626.77 649.51 655.67 667.75 682.36 697.82 707.87 713.27 714.93 720.17 719.6 727.18 736.11 745.28 756.93 771.89 784.67 797.43 811.36 825.52 833.03 840.53 847.98 851.99 853.32 853.61 850.61 837.71 831.36 837.71 851.32 866.84 880.08 889.86 897.99 910.22 924.22 930.79 936.04 939.86 935.24 922.69 912.46 899.93 888.44 882.35 874.24 880.11 888.14 903.92 913.16 911.88 906.22 903.33 909.87 917.05 926.31 938.81 941.23 945.39 962.8 973.42 981.06 984.56 995.11 1004.8 998.95 993.64 989.17 984.62 981.38 975.45 975.69 975.01 969.79 965.82 960.39 957.07 963.82 966.98 976.07 991.92 1010 1027.8 1043.4 1060.5 1080.9 1102.1 1117.4 1128.5 1132.6 1130.6 1123.7 1101.7 1093.2 1080.8 1070.3
372.61 369.41 367.6 367.12 366.99 366.11 364.94 364.06 363.21 362.19 361.19 360.1 359.14 358.66 358.54 358.83 360 361.56 363.37 365.8 365.61 364.66 364.14 363.4 364.37 365.39 366.33 367.69 368.88 370.04 371.11 372.1 372.87 373.58 374.08 374.4 376.05 381.29 391.87 400.39 413.86 426.49 440.46 455.32 461.33 463.7 466.05 466.58 467.72 468.54 469.35 470.47 472.7 474.92 478.22 479.7 489.97 497.55 501.62 505.48 506.44 513.41 518.74 521.77 523.25 525.46 529.97 534.39 538.51 540.15 539.4 540.31 541.68 543.16 546.53 550.14 561.82 571.73 573.6 576.68 581.27 587.43 590.8 596.68 600.27 607.12 613.99 625.21 636.59 644.81 655.36 664.88 675.57 683.72 689.75 693.98 699.82 701.24 698.81 710.47 725.73 736.38 747.97 761.91 774.32 783.72 797.8 811.98 823.16 831.42 839.75 850.43 856.02 862.3 867.94 870.29 858.11 852.89 867.32 878.36 885.94 892.87 900.54 915 928.66 936.36 940.94 944.9 950.63 941.65 927.96 918.27 907.15 901.01 896.44 897.55 899.14 907.57 921.63 931.83 931.35 925.14 929.27 932.08 935.07 948.89 956.4 953.92 966.48 981.61 993.46 995.06 1000.6 1014 1013.5 1008.1 1003.6 995.18 989.59 984.25 984.34 983.31 977.03 970.36 965.83 962.27 971.42 978.58 984.62 994.98 1012.1 1028.7 1042.8 1059.9 1079.3 1101.8 1120.7 1135.2 1142.6 1145.4 1137.1 1126.7 1102.7 1092.9 1089.1
377.84 376.77 371.84 369.57 369.01 368 366.93 365.48 364.35 363.42 362.36 361.28 360.2 359.9 359.32 358.28 359.35 360.92 362.8 364.9 367.26 366.38 364.68 363.72 363.98 364.95 366.11 367.28 368.43 369.54 370.92 371.69 372.45 373.22 373.99 374.74 377.12 384.05 392.22 399.68 412.25 426.35 440.23 453.29 460.91 463.83 465.93 466.67 467.96 468.89 469.71 471.41 473.55 474.81 476.22 479.16 483.73 489.73 494.92 498.71 505.52 505.94 506.38 508.48 511.89 514.19 516.92 522.19 526.86 528.27 528.31 529.2 531.31 534.01 538.11 542.57 547.84 566.87 575.97 579.8 587.74 595.41 598.15 602.61 609.72 618.58 620.77 631.34 635.2 640.92 650.59 659.5 667.33 675.2 679.52 684.54 687.04 691.01 688.47 696.12 712.55 727.46 742.54 754.06 768.74 777.88 779.88 793.44 807.46 818.13 828.21 837.43 849.6 855.92 864.44 872.87 878.34 880.19 884.5 890.12 895.28 899.87 908.54 918.76 928.5 936.64 943.12 947.7 952.45 955.04 947.87 940.61 929.81 920.41 915.79 918.99 921.76 922.7 925.47 937.82 946.86 949.94 943.58 945.56 948.27 955.72 966.27 968.14 973.2 990.97 1006.4 1012.2 1015.5 1026.9 1028.4 1025.7 1026.3 1012.7 998.81 993.36 993.32 992.88 986.67 975.33 971.66 968.53 978.51 993.49 1003.9 1007.3 1021.2 1036.3 1047.9 1061.3 1078.6 1100.8 1121.1 1137 1149.4 1157.2 1149.7 1134.2 1116.9 1112.7 1108.8
383.95 384.48 383.02 380.91 373.81 370.38 369.33 368 366.26 364.63 363.66 362.57 361.75 361.64 360.38 359.05 358.7 359.96 362.06 364.48 366.43 366.82 365.09 364.12 363.6 364.58 365.69 366.78 367.99 369.17 370.45 371.16 371.86 372.76 373.58 374.34 375.93 385.27 392.01 400.88 409.52 425.64 437.06 445.35 455.14 460.05 462.72 465.09 465.99 467.43 469.84 471.56 472.11 473.25 476.64 479.03 482.81 490.08 494.52 498.05 497.09 494.08 494.37 497.63 501.73 504.59 507.27 510.42 514.65 515.43 513.71 514.65 518.63 525.73 530.38 534.23 541.4 549.43 564.93 573.65 585.7 592.41 595.92 597.77 601.64 608.71 617.03 617.53 624.66 631.48 639.9 647.85 654.27 660.49 668.72 675.24 676.52 680.57 675.27 687.03 702.07 727.08 740.29 753.49 766.81 775.29 775.9 778.63 785.9 803.42 813.46 825.47 835.08 845.41 853.49 861.14 867.43 873.64 879.9 888.55 895.25 898.28 902.5 907.34 915.49 926.43 935.04 942.1 949.41 956.55 951.4 952.27 951.97 943.35 937.84 936.7 936.56 936.9 937.84 943.48 953.93 962.21 962.23 958.6 959.25 964.77 974.32 985.93 993.04 1003.7 1016.3 1025.9 1030.4 1035.2 1040.8 1044.4 1043 1030.8 1016.2 1006 1003.7 1004.9 999.74 987.46 981.6 980.01 981.86 999.8 1011.4 1017.5 1026.8 1040.5 1054 1064.7 1080.1 1100.4 1119.3 1136.8 1153.8 1166.7 1165.6 1154.2 1140.8 1134.4 1127
389.56 392.39 393.96 392.18 388.08 382.42 375.98 372.43 369.23 367.54 365 364.02 363.38 362.32 361.06 359.78 358.52 359.25 361.19 363.81 365.91 367.49 366.02 364.68 363.71 364 365.33 366.33 367.28 368.36 369.53 370.77 371.51 372.24 372.98 373.72 375.52 379.26 389.92 398.52 404.76 420.44 425 429.21 437.74 446.19 452.55 456.26 461.07 463.4 464.98 468.13 470.36 474.17 475.86 476.83 483.74 490.94 489.47 484.49 483.26 483.9 485.17 487.23 488.48 491.3 496.23 498.65 500.06 501.51 507.62 516.47 525.4 527.35 527.6 531.11 536.15 545.39 552.01 565.7 575.36 579.83 586.58 591.77 595.69 605.55 607.96 611.25 616.34 619.89 627.05 633.91 640.25 649.06 657.16 662.99 663.58 667.43 670.05 682.04 696.98 713.27 731.68 745.4 754.15 758.08 761.84 769.87 773.5 782.55 795.39 807.94 819.24 827.47 836.82 846.65 853.31 858.51 864.49 871.87 880.79 885.85 885.12 889.89 896.77 906.52 918.97 929.42 937.56 941.09 946.35 951.85 956.21 958.84 956.8 955.02 953.59 951.39 951.69 952.76 960.15 970.31 977.12 978.51 977.15 975.35 984.24 997.91 1007.2 1012.1 1021.4 1034.5 1044.2 1044.8 1050.1 1059.4 1059.2 1048.1 1033.3 1022.7 1017.6 1019.8 1013 1001.5 994.13 993.37 989.63 1001.2 1013.4 1025 1035.6 1045.2 1059.6 1071.7 1084.2 1101.2 1118.8 1137.5 1155.5 1174.1 1181.8 1176.3 1164.5 1154.2 1137.6
394.59 394.75 399.74 401.89 401.15 399.88 392.13 388.66 380.91 377.8 371.75 365.81 364.18 363.09 361.83 360.54 359.25 358.56 359.93 362.51 364.85 366.31 367.42 365.31 363.98 364.14 365.74 366.78 367.81 368.85 369.91 371.46 372.25 373.04 373.85 375.1 376.06 379.85 386.22 391.33 398.95 407.22 418.11 430.1 442.02 452.86 460.72 463.72 462.69 459.49 459.54 461.12 462.78 464.36 467.64 471.63 478.81 478.37 475.02 474.7 480.83 485.39 487.55 491.11 491.65 492.68 495.68 498.76 503.92 507.48 515.54 522.23 527.9 529.65 531.13 530.9 535.47 543.53 550.36 560.84 568.09 573.17 578.96 586.72 597.1 601.07 605.02 606.38 610.86 613.52 616.12 622.99 629.6 636.7 645.14 650.05 658.06 655.49 665.77 676.2 684.89 698.18 714.18 726.66 732.09 738.17 745.14 754.38 763.13 770.83 784.67 792.05 805.05 812.66 819.15 824.23 832.73 841.28 847.64 853.21 861.22 869.23 868.14 874.59 883.35 892.52 899.9 912.58 924.21 934.53 937.84 942.51 946.47 950.93 957.4 965.76 970.42 970.77 971.38 970.49 969.92 976.56 989.93 995.8 996.85 992.96 990.79 1000.8 1013.5 1020.2 1026.3 1039.3 1053.1 1056.3 1059.2 1072.2 1078.7 1064.2 1049.3 1037.7 1032 1034.9 1030.9 1024.2 1017.6 1012.1 1005.8 1000.6 1015.1 1026.9 1039.7 1052.1 1067.3 1078.9 1088.9 1102.7 1118.2 1136.8 1157.8 1177.3 1189.6 1188.6 1179.8 1161.8 1141.6
406.33 397.57 405.57 413.84 413.45 410.56 405.93 397.47 395.42 395.94 390.42 380.75 366.59 364.11 362.91 361.67 360.1 358.73 359.33 360.95 363.16 365.04 366.44 365.83 364.35 363.79 365.1 366.21 367.21 368.21 369.22 370.13 371.17 372.42 373.88 376.2 378.14 379.24 384.58 389.13 395.89 404.39 418.37 431.14 444.46 457.58 466.24 469.82 471.07 471.18 470.41 470.04 472.61 475.46 474.93 474.23 475.45 477.02 479.22 481.13 484.19 487.36 488.23 492.03 494.56 497.08 502.86 510.72 515.77 516.24 520.6 527.69 534.55 537.06 537.37 537.58 534.71 545.65 551.82 560.61 568.14 571.13 576.5 580.2 585.23 588.2 593.03 595.41 603.85 611.82 617.27 625.28 626.63 630.84 645.51 644.87 643.75 645.02 656.98 667.81 674.42 687.24 701.88 713.36 719.39 726.04 734.83 744.6 752.46 761.15 769.37 779.72 788.48 798.75 805.35 811.63 816.22 821.7 828.6 835.11 839.76 843.63 847.87 856.86 870.55 881.91 890.73 896.57 907.03 914.3 922.32 923.11 928.48 934.87 943.2 956.18 966.79 975.85 981.43 985.18 985.01 985.98 997.02 1007.4 1011.6 1011.1 1006.9 1005.5 1018.3 1030.2 1037.7 1045.5 1057.7 1068 1072.1 1081.1 1088.8 1080.3 1064.9 1052 1045 1049.8 1050.4 1039.9 1034.5 1027.8 1020.7 1012.7 1016.3 1030.8 1042.2 1056.7 1070.1 1082.4 1093.3 1105.3 1120.9 1138.4 1158 1177.2 1192.6 1201.3 1187.7 1170.7 1150.2
417.69 406.02 408 422.62 433.43 425.72 407.86 403.25 407.19 410.27 408.04 400.89 387.52 370.83 364.4 362.97 360.42 359.05 358.77 359.86 361.85 363.69 365.38 366.14 364.57 363.5 364.89 365.71 366.47 367.23 368.21 368.92 371.29 373.99 375.86 377.47 379.03 382.33 388.1 393.82 401.6 406.71 419.87 433.47 444.54 457.07 463.11 467.01 470.59 475.4 476.3 475.65 479.27 479.65 479.9 481.5 481.88 480.96 481.79 482.96 484.71 487.62 490.13 500.21 506.43 507.53 506.09 514.83 523.54 528.94 531.83 537.21 543.29 547.44 548.88 546.68 541.87 548.07 554.56 563.06 559.99 562.76 564.94 566.35 568.92 573.34 576.63 583.36 592.37 601.79 607.54 610.64 617.75 623.45 623.98 627.64 632.58 641.2 649.38 659.03 666.95 676.94 693.01 702.06 707.63 715.82 727.04 733.95 739.14 745.14 756.24 765.01 774.16 785.23 793.28 798.28 801.33 804.04 808.41 815.55 822.42 827.72 833.31 844.08 858.14 864.62 871.99 879.02 886.9 894.81 898.8 905.83 914.73 924 934.26 941.88 952.13 962.14 969.65 986.21 998.57 1001.9 1006 1016 1021.5 1024.4 1025.9 1026.6 1029.5 1040 1051.4 1058.7 1066.8 1077.3 1085.8 1094.8 1097.8 1101.4 1087.9 1070.9 1060.4 1059.4 1060 1055.6 1046.4 1038.6 1033.8 1030.4 1023.4 1028.2 1041.8 1055.9 1068.5 1082.6 1095.5 1109 1125.8 1141.3 1158.7 1177.1 1195.4 1211 1203.5 1189 1173.7
424.15 417.29 411.5 429.83 443.04 433.04 412.88 412.58 417.72 421.68 428.4 421.54 398.9 378.08 377.89 364.55 361.97 359.64 358.56 359.26 360.57 362.44 364.12 365.45 365.27 363.82 364.33 365.47 366.81 368.16 369.17 368.84 371.32 373.92 376.27 378.23 381.1 388.32 393.68 399.94 402.78 411.06 422.68 435.41 445.66 453.77 458.14 462.14 466.77 473.2 477.29 477.28 476.91 477.92 479.34 481.41 483.16 482.79 482.62 484.33 486.47 489.04 497.71 506.39 518.65 525.34 519.59 514.72 526.36 537 541.43 544.76 548.82 551.62 554.44 553.86 548.36 549.18 555.43 565.16 560.51 561.78 563.73 563.37 564.16 564.74 566.67 571.65 581.37 589.4 596.24 606.81 607.83 609.48 615.92 622.74 627.7 636.33 641.46 645.23 655.17 669.07 678.46 686.24 693.78 705.24 715.36 722.36 729.65 736.33 743.57 754.35 762.59 769.9 774.75 781.08 786.16 791.62 796.2 802.05 807.22 812.69 820.81 835.06 845.67 852.84 861.59 865.74 871.64 879.41 886.42 893.53 902.69 914.3 921.46 933.86 949.24 959.06 969.44 989.06 1006.8 1014.5 1020.6 1028.8 1033.4 1036.7 1039 1039.5 1040.8 1049.1 1061.9 1069.1 1078.7 1086.5 1097 1107.2 1115.2 1115.3 1104.9 1088.6 1078.3 1071.4 1070.2 1067.8 1060.7 1049.9 1044.6 1042.5 1035.8 1028.8 1037.4 1050.9 1064.7 1078.8 1096.5 1110.7 1127.6 1144.1 1161.1 1178.6 1197 1213.5 1217.9 1207.2 1192.6
432.74 425.45 414.36 436.5 449.4 434.24 425.09 423.15 423.8 429.67 437.43 425.42 401.68 390.77 390.76 380.87 364.49 361.02 359.22 358.63 359.66 361.3 362.82 364.34 365.3 364.29 363.65 365.38 367.41 369.48 371.18 371.47 372.42 373.18 375.91 377.83 379.66 388.07 396.43 402.36 404.6 412.93 426.47 438.01 446.25 449.39 452.1 455.17 463.9 471.3 476.63 479.34 479.15 479.01 479.92 481.14 483.14 484.16 484.04 484.81 487.85 490.46 497.21 503.51 521.25 536.57 529.65 526.15 530.43 539.06 545.9 556.25 554.16 554.24 554.76 559.2 559.96 560.52 557.85 563.2 561.03 561.38 562.5 562.63 563.8 564.32 564.24 570.91 580.58 584.2 592.58 593.77 592.65 593.4 600.57 606.85 613.22 619.52 625.28 633.43 643.24 652.74 665.54 672.19 679.75 691.61 698.86 704.91 713.19 720.46 731.7 743.2 752.17 758.16 764.55 767.53 769.04 770.26 773.05 789.29 800.58 806.92 816.76 833.32 840.65 849.73 853.62 857.48 864.88 874.55 881.81 886.63 895.35 907.21 920.96 932.65 947.97 959.41 970.49 987.6 1004 1014.3 1024.6 1034.3 1044.9 1050.2 1052.4 1054.5 1055.8 1061.4 1069.7 1074.4 1071.2 1086.2 1091.4 1089.1 1097.8 1111 1115.3 1104.8 1096.2 1089.2 1084.5 1080.5 1075.7 1066.3 1057.5 1055 1053 1046.4 1051.1 1052.2 1061.9 1074.2 1098.3 1111.4 1124.3 1146.2 1165.9 1183 1199.2 1215.8 1227.3 1225.7 1209.5
440.65 433.72 422.7 440.59 456.22 444.37 439.38 439.78 439.27 444.24 440.82 425.91 404.78 402.43 398.9 392.53 378.55 364.48 359.95 359.03 359 360.31 361.84 363.2 364.28 364.35 363.02 364.63 366.69 368.82 371.04 373.26 375.23 375.8 376.67 377.52 379.04 386.79 397.3 402.94 407 414.35 428.55 441.05 445.87 447.78 449.81 454.26 459.84 467.63 476.13 480.72 483.51 482.71 481.93 482.42 482.93 484.2 485.88 489.83 491.41 493.25 498.69 502.85 516.04 530.89 531.95 535.27 537.34 539.24 551.07 555.18 556.26 556.86 557.11 557.47 559.47 563.88 563.53 563.66 564.78 561.52 562.37 563.32 564.28 564.96 564.46 561.47 563.02 569.38 577.42 577.26 576.3 584.87 589.31 593.26 599.23 606.37 611.47 622.27 631.41 641.66 653.19 663.43 669.17 679.59 685.65 690.67 699.12 710.56 719.64 729.41 741.6 749.03 754.23 757.95 759.15 761.43 768.7 780.39 790.48 801.56 815.1 825.53 838.31 848.71 853.24 855.32 862.8 869.3 870.31 881.1 894.14 907.47 919.69 931.25 947.63 961.59 970.33 981.44 994.27 1001 1013.3 1023.1 1031.5 1039.6 1046.3 1050.8 1055.4 1053.9 1049.8 1045.9 1063.3 1076.5 1076.2 1071.1 1078.9 1095 1109.4 1116.7 1115.5 1109.4 1101.2 1094.8 1088 1080.6 1073.1 1068.6 1063.9 1057.8 1057.6 1062.9 1067.6 1078.6 1099.4 1110.8 1122.1 1146.6 1169.4 1186.3 1201.6 1217.8 1234.1 1237 1227.8
454.89 450.89 433.05 444.68 459.04 454.81 454.9 455.88 452.05 449.78 445.77 429.24 419.56 418.03 411.91 407.59 397.04 382.06 364.33 359.72 358.48 359.68 361.13 362.63 363.04 363.11 362.85 363.76 365.83 367.9 369.86 371.16 374.74 376.45 377.39 378.18 379.08 381.2 393.08 405.78 408.74 416.15 429.45 442 446.51 447.72 448.43 454.22 461.45 468.11 476.02 482.27 488.56 491.63 487.48 485.42 484.34 485.08 489.55 495.07 497.29 497.55 502.31 504.78 517.56 529.03 531.78 533.69 536.73 539.75 550.01 554.88 558.59 559.39 560.56 563.52 566.49 566.17 564.71 563.66 562.69 561.72 562.2 563.24 563.6 551.04 539.75 538.62 542.05 551.72 558.54 562.02 574.8 581.63 584.98 589.52 592.78 598.35 603.13 612.29 619.84 631.72 640.74 650.79 653.24 661.26 670.54 679.73 688.7 700.23 710.78 717.37 726.14 738.56 744.82 745.46 746.7 753.39 768.74 779.62 788.6 798.72 810.27 826.84 835.27 842.45 847.62 851.64 854.83 858.65 870.26 881.91 893.83 907.13 919.22 930.64 940.89 953.85 956.15 962.93 975.5 989.62 1005 1001.8 1009.8 1022 1024 1028.2 1034.8 1016.3 1025.1 1026.5 1028.1 1030.3 1041.4 1051 1062 1078.2 1088.9 1102.7 1110.9 1118.6 1116.8 1115.2 1104 1094.7 1086.6 1081 1075.1 1070.6 1067.8 1068.1 1075.2 1087 1100.7 1112.6 1123.9 1145.9 1168 1186.2 1203.1 1219.5 1237.3 1251.2 1240.9
466.49 465 447.48 448.43 464.42 466.59 463.92 464.18 463.74 465.86 450.04 437.25 435.18 434.25 427.1 420.86 412.12 396.89 376.56 360.33 358.86 359.17 360.98 361.5 361.57 361.88 362.68 363.42 365.03 367.03 367.7 368.99 375.58 376.43 377.26 378.09 378.92 379.75 393.02 406.27 411.12 416.38 431.59 440.71 443.55 445.16 449.54 457.4 466.86 471.76 476.83 481.66 485.7 494.41 495.66 491.4 489.27 489.99 496.11 501.34 503.99 501.97 503.33 507.83 521.18 527.3 534.5 542.49 545.22 550.26 558.52 564.76 562.56 572.08 573.2 571.3 571.45 571.79 564.31 563.22 562.13 561.08 562.14 563.23 558.06 540.45 530.09 533.74 539.67 547.06 557.04 564.09 569.4 581.12 583.83 586.84 589.94 594.15 600.54 604.88 615.38 623.87 632.11 641.71 643.78 648.66 660.01 670.65 677.86 686.69 697.68 705.36 712.64 722.97 730.29 732.94 737.69 749.57 769.44 779.99 788.45 797.27 808.95 817.42 823.05 832.72 839.84 843.11 848.82 860.4 873.62 883.97 895.44 905.33 914.21 920.47 925.23 930.52 937.79 944.52 952.27 960.8 967.68 973.81 977.04 984.84 990.8 994.89 993.25 1003.4 1014.3 1013.2 1010.7 1021.1 1030.3 1038.8 1043.9 1053.1 1064.2 1075.5 1081.9 1094.8 1103.8 1108.9 1113.4 1108 1100.4 1092.8 1087.4 1082.6 1080 1075.4 1082.7 1095.3 1106.9 1118.8 1131.1 1146.9 1164.4 1182.3 1202 1219.7 1237.5 1255.1 1255.7
482.15 481.82 466.75 464.54 477.39 480.73 477.55 481.54 481.26 476.48 462.37 454.71 443.77 430.78 426.12 426.3 406.57 386.52 378.4 370.52 360.26 359.1 360.3 360.83 361.64 362.44 363.25 364.05 365.19 366.88 368.17 369.38 374.62 375.96 376.96 377.96 378.96 379.97 396.6 409.03 412.42 415.22 431.78 436.99 442.76 449.35 458.69 465.88 471.16 473.96 476.94 479.72 483.27 486.47 493.3 494.57 492.49 495.01 499.76 508.89 513.37 510.74 508.04 514.24 525.29 529.78 543.54 549.73 551.53 553.09 556.76 557.96 560.72 562.3 562.35 562.35 563.42 567.56 564.13 562.44 561.35 561.06 562.15 564.34 548.33 531.71 529.6 538.1 543.91 552.22 560.7 568.55 574.15 579.67 587.74 592.82 596.87 598.19 601.9 603.71 610.86 613.49 622.82 633.34 636.1 644.58 653.74 661.35 666.81 670.73 674.27 684.78 697.2 706.67 712.69 724.28 737.04 751.8 767.2 778.44 787 794.85 804.04 813.19 814.55 824.02 833.23 840.11 846.07 861.11 870.82 878.7 883.95 889.01 892.02 895.68 900.29 905.83 912.47 919.27 926.15 932.37 938.45 943.82 948.83 953.64 961.71 973.02 986.02 993.32 1000.9 1002.3 1003.7 1011 1016.2 1021.2 1029.2 1038.6 1047.3 1058.9 1069.9 1075.3 1082.6 1089.4 1101.4 1111.6 1113.3 1108.1 1099.8 1092.9 1089.2 1087.1 1088.9 1099.6 1110.3 1123.2 1137.1 1149.7 1162.9 1179.3 1200.3 1217.7 1234.4 1250.4 1264.2
503.89 498.6 490 483.44 480.48 467.75 458.13 454.19 455.92 455.57 448.81 430.46 422.95 418.17 410.29 401.16 388.5 386.2 376.59 371.09 361.68 358.9 360.41 361.2 361.98 362.76 363.55 364.3 365.1 366.5 367.57 368.86 372.43 375.95 377 377.91 378.74 379.9 395.84 410.43 412.45 414.15 429.52 436.42 451.54 461.47 466.44 469.78 471.34 472.77 475.25 477.66 480.47 482.85 486.8 492.22 493.35 498.52 501.47 509.62 520.47 518.01 513.99 520.61 527.35 532.98 537.15 540.03 542.02 545.62 550.95 548.68 548.51 550.18 550.09 550.14 551.49 555.31 563.76 561.73 560.58 561.06 565.45 552.95 537.48 527.43 532.38 541.43 546.71 555.81 564.92 572.68 580.18 584.02 588.11 598.1 604.19 606.83 609.18 613.14 616.43 621.93 626.53 629.04 630.74 634.48 644.98 653.5 658.28 662.72 669.2 676.88 685.4 690.9 702.77 717.73 734.18 751.22 764.4 773.37 782.12 788.98 797.57 810.23 823.46 830.69 835.53 839.36 842.94 848.95 855.27 860.24 864.23 868.75 873.22 876.65 885.18 894.31 900.02 902.96 906.64 914.88 923.22 932.71 941.55 951.06 959.02 968.44 977.88 984.73 989.63 992.7 998.52 1003.8 1007.8 1012.5 1019.8 1026.4 1039.9 1050.5 1059.8 1066.2 1070 1078.6 1089.3 1104.2 1120.6 1124.3 1117.1 1108.9 1103.3 1100.2 1097 1105.8 1115.4 1126 1141.7 1153.5 1165 1180.9 1199.3 1215 1230.9 1247.9 1264.9
515.73 517.95 507.77 497.33 473.37 455.14 441.67 431.75 424.28 422.54 419.76 416.77 411.36 404.71 397.52 391.82 397.17 408.72 400.34 385.26 363.01 358.63 360.33 361.05 361.63 362.22 362.81 363.5 364.5 365.64 366.93 368.25 371.4 375.31 376.25 377.38 378.41 379.43 394.69 409.74 412.77 414.47 426.66 429.84 443.7 458.58 466.85 470.23 472.39 474.16 478.88 479.54 478.69 479.96 483.04 487.93 490.97 495.86 501.05 507.37 516.02 517.35 520.24 523.93 529.29 527.05 530.06 532.88 536.29 539.83 538.47 538.05 538.16 539.68 539.7 540.34 542.31 545.61 550.43 553.54 556.31 556.34 549.57 538.91 527.82 527.34 535.88 543.89 550.4 560.84 569.08 577.2 585.13 590.27 595.67 601.14 605.87 608.94 612.36 615.78 619.74 627.05 633.29 636.73 637.97 638.4 644.1 649.96 655.9 662.58 668.88 673.89 683.61 693.36 700.14 718.14 734.14 749.71 761.32 768.48 775.13 784.56 796.06 807.96 818.55 833.95 834.86 839.62 842.61 846.96 849.64 852.85 854.67 859.03 866.87 874.81 882.67 888.02 893.9 899.84 904.86 913.25 920.6 930.36 936.26 945.46 958.96 967.5 975.7 979.27 982.96 985.46 991.32 997.65 1001.3 1004.8 1010.8 1022.2 1032.9 1045.2 1051.4 1061.6 1070.3 1077.7 1085.4 1099.2 1112.5 1127.4 1131.9 1125.8 1117.7 1112.8 1109.9 1109.5 1119.6 1129.9 1143.2 1155.3 1167.2 1181.8 1199.1 1215.6 1233.2 1250.5 1266.2
526.64 527.64 517.1 502.03 476.57 452.31 435.59 425.66 419.05 416.89 413.13 407.47 404.07 401.55 397.56 404.49 411.52 417.48 419.1 397.74 371.15 361.36 360.46 360.38 360.6 361.19 361.96 363.15 364.05 364.94 366.8 368.86 371.86 375.72 376.68 377.63 378.64 379.74 392.28 409.51 416.58 416.08 422.13 426.21 434.4 451.14 465.73 469.59 472.17 474.62 479.15 480.6 480.65 480.64 482.88 484.69 487.57 491.96 497.79 504.07 512.16 518.25 524.07 521.99 523.47 524.01 526.08 535.5 531.25 529.86 530.42 530.94 531.27 531.24 531.5 532.28 533.37 533.9 534.67 536.17 535.34 535.22 532.43 525.26 522.03 530.69 539.43 547.95 556.97 565.2 574.35 583.03 591.78 597.64 603.1 606.87 609.81 613.6 617.4 620.36 623.99 631.46 638.21 642.78 645.48 647.79 655.38 661.42 667.5 674.35 678.87 687.66 697.85 705.69 710.27 720.52 736.87 750.6 758 763.94 771.82 782.91 794.06 803.97 815.92 822.43 838.8 839.41 842.76 844.22 846.9 846.73 853.06 860.19 867.56 873.96 879.55 886.22 891.86 897.32 904.77 910.73 917.85 926.45 936.26 947.56 955.77 961 966.85 976.56 977.12 979.12 984.98 991.2 996.14 1002.4 1011.1 1025.2 1037.1 1047.9 1052.8 1061.4 1073.3 1079.9 1088.9 1098.8 1106.8 1118.7 1132.3 1137.5 1131.5 1126.7 1122.1 1118.2 1121.1 1132.9 1145.3 1156.5 1166.9 1180.8 1198.4 1213.4 1229.6 1251.7 1266.9
536.68 536.28 521.92 507.7 487.59 452.47 451.28 440.58 425.88 416.42 417.61 421.3 413.34 418.28 413.9 418.64 426.45 430.22 435.41 416.69 391.29 366.57 362.87 361.61 360.89 361 361.75 362.68 363.62 364.51 365.74 367.52 369.32 375.3 376.32 377.45 378.63 379.77 390.16 405.25 416.27 419.15 419.92 425.72 431.63 444.91 461.86 470.72 472.87 475.45 478.49 480.06 481.17 482.23 483.52 484.11 484.67 487.81 493.21 500.5 507.36 516.08 523.5 525.68 526.88 526.71 525.82 522.67 518.84 518.66 520.33 522.18 523.8 524.75 523.86 523.62 524.04 521.39 517.42 514.93 513.84 514.87 518.47 518.29 526.54 535.92 544.73 553.27 563.19 571.85 580.6 588.39 597.33 603.78 607.76 611.43 615.17 619.01 621.87 623.7 629.72 636.85 642.99 648.2 653.97 659.53 665.85 671.53 677.58 682.13 688.96 697.69 707.63 714.9 720.56 727.14 736.05 746.3 754.53 761.68 768.89 780.44 789.14 798.11 807.37 817.92 824.06 838.63 838.35 841.48 842.75 846 851.84 860.26 867.28 873.05 878.43 885.12 888.44 895.75 904.2 912.07 918.07 927.27 935.95 942.82 950.83 956.19 964.38 968.17 970.43 977.48 982.01 989.7 996.24 1002.2 1011 1025.2 1041.1 1052.1 1057.6 1066.7 1076.3 1084 1094.6 1103.1 1111.3 1120.6 1131.7 1140.8 1143.9 1140.2 1136.3 1131.8 1127 1135.2 1147.9 1158.8 1169.9 1182.8 1196.9 1212.2 1227.9 1250.2 1266.6
545.65 539.44 523.29 513.19 493.84 470.02 461.99 454.49 436.83 424.1 425.9 427.88 427.26 424.81 421.35 429.04 437.47 445.12 441.16 427.57 412.28 388.7 364.75 363.45 362.06 361.4 361.57 362.34 363.29 364.05 364.8 367.49 370.12 374.97 376.47 377.32 378.17 379.13 388.58 404.13 416.5 422.54 427.2 428.55 431.79 441.17 457.88 470.75 473.36 475.59 476.9 478.43 480.89 481.62 481.87 482.25 482.94 484.77 489.1 494.81 501.28 505.55 507.92 510 512.41 512.43 511.63 509.87 507.2 507.19 509.55 511.82 512.96 513.56 513.39 511.95 509.55 502.76 504.49 512.33 516.68 518.9 522.48 527.35 533.24 540.42 548.76 559.61 569.3 577.77 587.43 595.5 602.98 609.19 615.04 617.73 620.44 622.73 627.52 633.51 636.51 641.55 646.98 652.8 661.56 669.23 676.01 683.14 688.33 691.67 697.74 705.86 714.69 724.44 734.26 742.98 748.34 752.22 751.83 760.73 771.83 779.58 786.64 793.05 799.77 809.98 816.59 823.38 827.35 831.11 833.05 840.77 847.7 850.5 860.25 870.48 878.32 885.74 891.24 896.14 902.18 908.34 918.24 928.72 937.61 942.94 947.89 954.42 961.46 965 968.77 972.76 980.43 988.59 996.73 1002.7 1008.6 1024.7 1040.3 1054.7 1059.6 1069.1 1080.2 1089.4 1099.9 1109.1 1116 1127.5 1132 1142.2 1153.5 1152.6 1150.5 1145.5 1139.8 1138 1148.9 1160.9 1171.5 1184 1199.3 1213.8 1231.4 1247.9 1266.6
548.78 539.57 529.53 518.77 497.56 476.88 472.49 463.26 448.73 443.47 440.45 440.11 435.98 435.88 431.76 439.42 446.6 445.28 434 420.42 410.36 398.07 374.81 364.29 363.4 362.45 361.98 362.18 362.81 363.56 364.3 365.6 371.35 373.6 376.01 377.39 378.59 379.26 389.23 406.21 418.5 426.88 431.1 432.09 433.96 442.27 458.95 470.87 473.24 474 475.37 477.31 478.87 479.62 480.01 480.83 480.97 482.51 484.03 485.55 487.17 488.9 491.27 493.19 495.06 495.87 496.04 494.63 492.99 492.46 493.83 497.57 500.85 501.4 498.9 495.77 488.29 507.44 518.15 524.03 526.62 528.95 536.45 538.32 539.87 545.86 557.03 566.66 575.36 583.09 593.7 602.5 609.81 616.19 619.41 622.56 625.85 627.13 634.25 639.6 642.8 646.3 650.33 657.28 666.34 674.65 684.16 689.35 698.78 703.28 708.3 713.42 720.12 730.53 744.37 744.58 751.43 756.75 762.64 761.72 766.8 775.59 784.21 793.75 799.98 800.68 807 811.81 816.06 821.71 826.06 830.34 833 846.51 860.81 870.77 877.79 884.28 888.83 897.47 905.21 913.71 923.66 928.78 937.61 942.99 947.94 951.62 956.49 961.47 966.3 971.77 977.25 985.17 991.94 996.21 1007 1023.3 1038.5 1050 1057.3 1070.5 1078.5 1087.8 1102.2 1113.6 1124.7 1132.9 1140.6 1141.7 1151.2 1161.2 1161.8 1157.4 1152.2 1148.9 1151.2 1161.5 1171.3 1185.3 1199.9 1212.7 1228.2 1253 1271.3
548.27 534.83 529.54 513.66 497.33 482.54 490.24 479.97 472.33 463.74 457.39 452.85 449.83 443.46 442.7 447.78 441.85 438.01 425.08 411.95 400.26 387.74 373.1 367.3 363.78 363.63 362.99 362.87 362.35 363.07 363.83 364.59 369.26 373.1 375.9 377.69 379.34 383.83 391.42 407.06 421.37 430.43 433.89 434.86 437.65 446.6 459.44 471.03 471.61 473.17 473.81 475.59 476.59 476.47 475.5 470.48 471.41 476.87 476.38 474.41 472.14 472.93 476.71 478.44 476.97 476.02 475.8 475.04 475.06 473.49 475.41 477.57 481.09 482.49 480.03 474.96 495.93 516.22 525.77 528.85 535.78 540.88 550.44 551.53 551.5 555.88 562.25 572.63 581.3 588.35 596.14 607.65 616.08 621.89 625.56 627.11 629.39 632.25 639.42 646.32 649.45 652.82 658.34 664.05 670.71 678.95 687.81 701.16 705.66 714.38 721.5 728.73 729.37 734.72 742.93 753.58 763.26 758.33 762.41 769.62 770.87 776.48 781.5 786.98 792.02 800.26 802.12 806.54 810.56 813.53 817.58 823.86 836.13 847.81 857.52 866.98 875.57 882.29 889.02 898.75 906.82 916.9 927.57 932.91 937.88 941.44 946.74 953.37 957.63 960.7 963.67 970.43 976.45 981.73 986.09 993.58 1005.9 1023.2 1037.7 1050.8 1058.9 1071.3 1075.4 1087.3 1102.8 1115.6 1128.7 1137.2 1143.4 1145.7 1150.4 1158.6 1169.9 1168.5 1163.7 1159.1 1157.4 1164.1 1172.7 1185.9 1199 1211.5 1226.1 1248.4 1273.9
532.13 525.64 517.58 505.95 494.29 494.57 503.26 502.18 493.64 484.2 474.27 468.78 458.79 451.95 454.83 451.43 440.57 428.87 412.73 400.74 392.2 382.61 373.98 371.01 366.64 364.77 364.16 363.61 362.98 362.6 363.36 364.13 364.92 371.55 375.18 377.32 379.54 384.53 393.64 410.67 423.78 434.31 442.84 444.78 447.13 455.83 465.62 468.32 471.12 471.06 471.9 472.69 472.4 468.75 462.99 457.02 456.26 460.47 461.59 458.54 455.45 453.97 454.62 456.62 458.02 459.22 457.45 452.98 458.62 470.75 472.26 472.01 472.04 473.06 475.4 490.35 504.22 517.01 530.05 537.65 543.18 547.56 551.03 554.26 559.51 564.75 569.65 582.8 590.04 596.53 602.18 613.5 622.68 630.36 636.58 637.78 638.87 642.53 648.26 653.11 658.59 664.19 669.69 674.5 679.42 684.87 690.96 702.76 717.67 719.88 727.4 734.67 742.08 747.51 751.57 755.82 763.73 763.76 763.31 765 770.32 780.16 786.92 794.1 800.01 803.54 806.96 808.98 813.84 817.11 819.9 824.61 837.46 848.85 857.59 865.79 873.61 880.6 890.06 898.83 910.42 917.17 922.35 923.99 934.15 941.93 950.73 955.16 957.83 961.78 965.47 966.62 969.87 976.67 981.68 991.42 1005.6 1022.1 1036.9 1053.1 1062.3 1067.2 1071.2 1089.4 1104.4 1115.7 1133.7 1141.6 1147.5 1151.6 1156.2 1161.9 1167.2 1181.2 1177.4 1171.1 1166.1 1171.9 1178 1186.7 1198.6 1211.5 1226.2 1244.5 1270.8
527.56 513.91 505.46 498.21 496.97 505.84 514.07 518.27 510.92 499.44 485.69 470.75 459.55 461.13 459.89 443.9 435.79 418.57 405.54 401.26 391.94 383.52 371.11 369.18 366.51 365.98 364.87 364.24 363.59 362.96 362.89 363.68 364.5 368.95 374.97 377.58 381.11 385.26 399.7 412.18 424.41 437.69 451.76 460.64 464.46 465.36 466.54 468.95 468.87 468.59 468.66 468.08 462.57 457.04 451.24 444.42 441.68 440.47 443.06 442.92 437.42 432.24 434.76 438.87 441.29 443.59 448.85 463.46 476.94 482.13 483.56 484.19 485.01 486.19 492.51 504.26 514.38 523.07 532.77 543.76 548.85 553.67 554.8 558.69 564.99 570.31 576.43 586.37 596.42 603.44 611.27 626.14 633.58 639.31 645.54 648.96 649.65 651.64 654.29 660.11 666.65 672.38 677.15 680.68 686.77 692.34 697.45 708.41 722.87 724.08 730.07 740.03 746.53 752.65 758.51 767.19 772.76 769.59 771.2 771.89 775.41 782.54 788.83 790.93 794.94 801.33 804.92 808.15 809.93 810.01 816.98 823.81 832.52 833.6 843.52 856.53 867.86 877.17 887.25 897.54 902.69 907.43 919.12 928.05 935.99 942.38 950.98 956.85 961.16 962.87 966.04 968.2 971.7 975.97 982.84 989.25 999.46 1011.6 1027.3 1043.8 1054.6 1061.6 1070.1 1084 1101.9 1117.2 1128.6 1143.3 1155.9 1161.3 1164.8 1169.4 1176.3 1181.1 1190.6 1183.5 1176.9 1178.6 1185.2 1192.4 1201.8 1213.1 1227 1243.2 1265.1
523.01 511.27 511.51 510.73 509.32 512.83 520.51 529.24 524.87 508.95 489.32 474.47 473.74 472.59 456.73 441.96 435.75 428.49 409.96 405.12 397.17 387.7 371.34 368.61 368.08 369.03 368.91 364.86 364.23 363.6 362.93 363.26 364.09 364.91 374.09 377.88 380.8 386.91 401.85 415.18 427.58 441.1 455.13 462.26 465.29 466.47 467.02 467.5 466.94 465.96 462.35 456.96 447.07 441.78 435.72 430.97 428.32 427.82 427.29 425.11 428.28 439.74 444.55 447.72 450.17 453.65 464.63 477.54 485.75 490.14 491.46 492.5 495.27 501.57 507.01 515.61 526.44 534.03 536.93 543.92 549.02 559.46 566.18 571.35 575.68 578.19 586.28 593.97 602.35 612.22 621.26 631.85 639.55 646.76 655.79 660.15 661.41 662.98 664.85 666.39 671.74 677.67 683.19 687.68 694.06 698.87 704.69 713.84 726.52 726.44 732.4 738.27 748.21 755.89 761.32 766.93 774.92 776.47 777.55 779.98 782.28 787.95 791.65 796.52 800 804.26 806.13 809.39 812.35 815.14 818.9 823.49 830.34 842.22 847.54 857.82 858.97 862.32 870.99 887.92 902.7 913.71 922.54 925.8 931.47 938.18 947.03 955.33 961.08 963.88 966.63 969.69 974.59 981.72 989.2 999.95 1007.9 1018.9 1027.8 1039.5 1053.6 1067.2 1076.3 1083.3 1096.2 1113.3 1129.8 1140.5 1154.4 1167.2 1177 1181.2 1185.4 1186.4 1199.3 1195.9 1187.2 1185.7 1194.5 1202.2 1206.8 1218.2 1232.3 1246.5 1266.7
517.76 519.63 525.4 528.04 526.37 524.34 529.29 534.03 531.97 512.09 500.74 494.64 489.23 480.63 464.49 448.09 439.64 434.13 424.56 412.15 399.24 392.31 376.01 371.38 371.33 370.65 371.35 369.98 364.89 364.23 363.53 362.82 363.63 364.47 371.18 377.33 381.68 388.28 403.24 418.37 429.69 445.85 458.55 463 464.44 466.33 466.94 466.02 465.1 455.97 449.01 443.06 435.34 428.95 424.34 416.97 418.32 418.68 419.6 426.75 442.28 452.89 457.51 460.34 462.47 467.48 475.89 485.04 492.33 495.03 496.38 497.93 503.3 512.73 520.64 528.32 536.52 546.05 549.53 553.17 556.09 564.49 572.93 579.02 584.66 590.83 597.99 602.19 609.26 619.34 631.5 640.39 648.03 655.72 659.54 663.66 668.36 673.66 675.75 675.31 677.26 683.6 689.06 694.36 699.43 706.16 711.39 717.23 727.62 728.06 735.66 743.79 756.53 762.05 763.62 769.27 775.1 783.56 786.2 786.57 788.42 792.04 797.95 802.51 805.84 810.83 814.45 817.74 821.92 825.49 828.55 830.98 833.4 841.63 860.55 868.99 876.14 880.51 881.81 882.38 894.93 910.77 921.08 927.31 927.51 931.97 937.65 952.93 959.23 964.17 967.86 969.78 982.01 990.67 997.36 1004.2 1016.3 1029.8 1038.6 1046.6 1059.9 1075.9 1085.3 1095.8 1104.5 1113.8 1129 1143.3 1154.9 1169.4 1181.1 1192.2 1192.5 1194.2 1203.2 1207.4 1199.3 1192.8 1200.9 1207.6 1213.4 1224.3 1238.4 1253.1 1270.7
527.68 530.18 536.29 542.57 539.21 539.47 542.59 543.04 529.03 521.31 519.04 514.09 507.32 492.49 478.97 461.19 450.3 445.21 428.42 415.52 406.72 392.76 381.92 374.87 372.5 372.78 371.95 370.84 370.02 364.84 364.15 363.46 363.12 363.98 364.93 378.59 385.23 389.56 406.1 422.41 437.59 450.79 460.42 459.8 460.26 463.12 462.89 456.94 448.82 442.75 438.64 429.79 422.11 416.43 413.13 414.5 424.33 431.41 433.68 438.55 444.32 456.96 466.46 474.73 473.4 477.72 485.21 490.91 495.99 498.14 499.19 503.22 513.66 523.72 527.98 535.49 544.87 556.68 556.87 561.93 566.83 572.8 580.01 587.85 594.05 600.55 605.01 608.95 618.67 621.82 632.09 640.21 643.59 646.29 651.78 658.13 663.49 668.88 674.99 680.57 684 687.35 692.96 698.48 705.49 709.87 714.21 719.88 729.48 732.16 739.03 747.06 755.87 765.58 770.94 774.58 783.1 791.9 795.03 794.52 794.41 794.62 798.58 803.17 809.47 813.94 817.12 821.54 826.86 834.46 838.38 843.5 846.97 849.38 852.2 864.26 877.02 888.07 895.35 901.28 905.94 913.76 927.18 934.3 931.27 940.19 946.62 958.35 968.64 976.28 980.48 980.34 981.83 995.04 1001.3 1016.2 1027.7 1036.4 1039.3 1049.2 1066.6 1081 1089 1104.1 1113.8 1124.6 1134.1 1148.8 1157.5 1171.5 1183.5 1201.9 1203.6 1204.1 1210 1217.1 1210.1 1201.9 1207.9 1213.1 1219.6 1230.5 1243.1 1258.6 1274.7
547.32 546.28 550.42 553.56 556.35 556.5 557.1 549.02 533.77 534.96 534.42 527.95 520.06 505.42 490.48 476.35 461.37 449.07 429.17 419.22 411.75 397.95 384.28 379.6 374.14 373.18 372.1 371.51 370.64 368 364.82 363.91 363.09 363.46 364.37 371.1 385.46 389.22 403.21 423 440.56 453.18 451.15 446.55 446.39 446.7 445.59 441.57 434.42 430.32 431.08 418.01 409.42 418.59 426.24 430.71 433.95 436.75 444.79 451.97 453.96 457.99 468.37 479.08 484.7 485.47 491.23 494.99 500.29 502.34 504.92 509.87 520.17 529.23 534.53 541.37 550.38 562.48 566.77 569.29 574.35 580.81 587.34 599.41 604.47 612.01 621.54 625.97 627.2 624.4 622.62 624.61 626.81 629.19 634.94 642.98 649.59 657.23 661.02 666.03 676.78 684.79 689.7 691.51 691.64 696.98 707.85 718.32 731.8 738.06 742.42 751.5 759.43 768.17 776.74 783.91 792.9 799.34 802.77 803.12 803.29 803.17 804.36 807.22 811.46 815.66 822.53 826.99 830.77 838 842.14 847.07 856 865.35 867.48 870.81 876.82 880 892.82 906.05 913.3 918.33 927.36 938.64 938.68 946.2 954.78 965.25 978.14 985.46 988.33 991 992.73 1000.8 1010.2 1010.2 1026.4 1033.7 1043 1052.8 1067.3 1082.1 1091.1 1099.8 1112.6 1126.7 1139.2 1150.1 1162 1174.8 1184.7 1201.1 1213 1214 1218.3 1227.1 1221.5 1212 1216.4 1221.2 1229 1236.2 1247.5 1261.3 1278.3
571.17 565.42 561.05 567.86 571.09 565.57 562.61 554.77 551.12 548.35 546.87 541.6 530.92 510.88 494.33 479.85 468.3 453.68 432.6 421.77 416.05 404.47 391.2 382.52 374.85 373.57 373.2 372.2 370.99 370.14 367.01 365.21 364.38 363.66 363.62 364.43 370.21 385.83 394.6 414.36 437.4 444.89 439.92 435.72 433.6 431.6 429.21 425.11 419.58 412.97 408.78 409.57 422.96 431.81 436.58 445.02 450.46 450.81 449.25 453.76 459.75 462.5 469.45 478.97 495.8 499.05 498.66 501.94 506.34 507.74 511.13 518.86 526.76 538.66 546.68 550.9 564.14 575.41 576.06 579.4 585.37 593.53 600.52 605.77 615.22 623.82 623.03 621.16 618.2 613.85 612.58 613.53 616.44 620.14 622.82 628.58 636.66 642.49 646.89 650.65 663.57 672.12 673.23 672.07 676.39 685.6 699.17 714.64 720.99 728.74 736.94 747.04 756.71 769.53 777.71 788.95 798.65 806.58 810.11 811.25 812.27 813.04 815.16 817.42 819.23 824.76 828.92 833.02 837.56 845.38 850.04 855.26 862.04 873.38 883.72 886.09 892.49 896.15 897.63 899.6 914.34 922.71 928.41 936.79 942.99 951.38 959.97 970.05 985.1 991.16 994.01 997.61 1001.2 1013.2 1022.1 1027.1 1025.9 1035.5 1046.4 1057.6 1076.1 1082.6 1095.7 1109 1113.7 1130.2 1142.4 1152.5 1163.8 1177.9 1187.8 1204 1218.6 1224.3 1227.2 1233.2 1230.6 1221 1225 1232.8 1239.2 1246.1 1252.6 1263.6 1279.3
590.2 586.59 578.98 582.07 584.68 574.41 566.72 560.71 565.36 565.51 553.56 541.1 526.5 510.06 491.94 469.29 456.14 452.68 439.31 424.67 417.79 403.41 392.6 383.74 378.58 374.81 373.7 372.48 371.44 372.56 372.4 368.92 365.96 364.56 363.85 363.67 364.53 373 391.36 402.13 428.06 433.32 429.33 425.92 422.14 419.85 417.41 413.45 406.34 408.55 416.04 419.97 428.16 436.41 442.81 452.02 458.22 462.49 461.77 461.5 466.93 471.14 473.55 485.39 505.61 513.91 513.3 511.77 513.18 515.79 522.16 531.7 542.11 553.44 561.63 570.3 577.98 581.57 584.48 591.02 599.8 603.57 607.48 611.68 614.09 612.32 610.5 607.68 604.78 602.69 602.05 602.56 603.93 607.03 612.29 619.05 623.77 630.67 633.96 643.44 653.99 660.17 661.78 662.34 669.99 680.74 691.71 706 720.92 735.71 735.93 744.32 752.09 760.81 770.21 784.05 798.91 810.47 816.36 819.17 820.9 821.57 823.4 824.89 826.45 829.82 834.86 838.95 843.57 849.32 854.41 860.53 867.07 877.27 888.72 899.57 906.31 911.35 914.65 909.87 908.34 915.66 924.17 932.31 939.19 948.74 959.7 972.66 988.6 995.86 1000 1002.5 1007.2 1017.4 1028.1 1034.7 1036.1 1039.6 1047.7 1061.3 1077.1 1085.7 1101.4 1113.5 1124.8 1133.3 1146.5 1155.1 1168.2 1181.9 1194.2 1209.8 1224.3 1234.1 1239.3 1240.2 1242.6 1233.2 1231.7 1240.6 1248.7 1254.8 1259.5 1266.2 1277.3
605.51 603.6 598.64 596.3 596.03 587.35 574.05 568.97 574.7 573.69 552.97 542.09 526.8 511.75 485.15 462.65 444.21 433.05 423.42 417.08 404.25 389.63 388.19 387.78 385.54 379.57 374.33 372.8 373.97 376.11 376.24 372.29 368.7 366.29 364.7 363.96 363.82 364.82 379.92 394.13 413.93 418.9 415.85 412.66 409.94 408.58 406.45 402.75 409.65 418.09 425.75 430.25 436.14 443.3 452.03 460.61 469.02 469.6 472.09 477.61 478.67 478.6 481.09 496.64 511.3 525.44 530.95 531.49 530.93 534.72 540.93 550.54 561.02 572.41 576.39 577.06 578.62 581.42 585.49 589.22 593.56 596.09 597.55 599.5 600.76 598.7 597.44 596.22 594.73 593.07 590.22 589.49 591.17 596.84 600.94 606.93 614.36 622.37 631.11 637.04 644.52 649.11 653.96 660.85 666 674.49 686.94 697.56 711.09 727.19 735.56 742.63 752 765.29 770.41 779.81 789.14 798.04 807.98 816.49 824.05 826.64 827.86 828.66 832.37 836.64 841.66 847.15 852.89 858.07 863.57 867.79 873.64 880.35 892.43 902.5 910.87 920.22 920.31 913.82 912.27 916.05 924.92 935.66 944.49 951.92 963.69 978.73 992.97 1002.1 1003.5 1004.4 1009.2 1017.6 1030.5 1038.6 1045.4 1052.3 1055.1 1067.7 1078.6 1090.2 1103.2 1117.9 1129.3 1140.4 1153.6 1161.9 1173.3 1186.6 1202.4 1215.1 1228.6 1238.8 1249.7 1251.6 1254.2 1250 1241.8 1246.6 1253.8 1259.4 1266.3 1275.3 1282.4
617.56 617.34 613.03 615.03 608.84 593.47 576.53 568.84 561.34 554.15 544.09 529.69 518.04 498.79 477.01 454.08 436.17 420.37 411.56 404.94 397.53 394.53 402.93 400.85 396.95 387.59 377.48 374.96 374.37 375.82 373.83 371.53 370.3 368.37 366.3 364.81 363.93 364.24 368.38 391.45 396.31 401.22 399.97 398.68 397.96 398.34 400.49 408.03 415.55 419.97 426.69 431.97 440.82 447.08 459.42 468.47 475.78 475.1 479.89 489.16 491.89 492.32 496.44 507.04 512.14 522.33 529.42 536.59 542.77 547.85 551.57 555.08 559.56 563.49 567.63 570.76 573.11 574.47 575.69 576.83 577.27 578.03 581.11 584.84 587.86 589.11 589.43 589.02 588.09 586.35 584.2 584.04 589.71 598.26 603.81 610.98 616.79 623.23 631.91 637.74 644.58 651.82 664.45 677.85 685.78 685.5 688.27 695.99 709.52 725.04 732.85 741.38 752.47 761.8 769.79 779.19 790.54 802.25 806.43 814.54 819.49 824.81 829.74 834.67 839.79 844.12 849.28 855.46 862.67 869.87 876.45 881.53 884.63 888.6 897.93 906.96 914.49 923.48 922.09 916.28 916.89 923.23 929.38 940.72 948.94 958.33 967.02 980.68 993.96 1006.3 1011.5 1017.1 1023.1 1023.1 1029.5 1042.4 1050.6 1060.3 1072.1 1075.7 1080.8 1096.4 1107.3 1119.3 1130.7 1142.9 1159.5 1168.9 1177.9 1191.8 1208 1219.5 1232.7 1242.7 1255.4 1261.6 1265.2 1260.3 1255.9 1255.9 1260.1 1263.7 1269.6 1280.7 1290.1
634.45 638.26 632.99 613.2 589.17 573.02 560.71 549.1 536.19 525.44 513.79 501.55 487.21 472.99 462.9 451.25 428.63 412.47 404.78 403.61 402.41 407.75 399.92 390.75 389.12 387.07 381.19 376.7 377.72 374.24 372.96 372.08 371.2 369.99 367.98 366.19 364.76 363.76 364.78 380.77 391.53 392.41 392.31 395.61 401.64 401.92 407.5 412.53 418.42 423.05 427.84 435.57 446.08 457.28 468.8 476.46 480.24 479.67 481.87 493.72 503.18 508.37 512.47 517.85 519.1 518.61 525.52 529.76 533.89 536.99 538.42 542.1 544.7 551.27 561.88 563.65 559.2 560 561.36 559.52 560.79 563.25 566.71 570.61 574.84 578.68 580.77 581.42 580.69 579.17 578.68 588.66 597.53 604.72 608.35 617.81 622.4 630.07 634.36 641.7 649.07 659.95 673.89 688.98 703.57 704.21 698.76 706.47 724.09 732.6 739.6 744.93 754.13 759.45 768.5 776.9 784.7 792.89 800.89 812.13 823.03 829.43 835.08 841.51 846.63 852.13 856.66 863.69 870.01 876 885.85 894.77 897.66 899.41 905.63 910.84 917.22 925.87 926.65 921.31 923.35 929.86 935.91 945.71 955.02 964.72 971.98 984.48 997.98 1008.5 1020.6 1031.2 1036.6 1039.3 1041.2 1049.7 1057.2 1067.8 1080.7 1088.8 1092.4 1094.2 1111 1121.6 1138.4 1149.9 1157.8 1169.9 1180.1 1194.1 1210.1 1221.9 1235 1246.6 1260.1 1268.2 1273.9 1275.9 1271.7 1268.9 1268.6 1269.2 1274.6 1283.8 1294.2
630.63 619.63 603.38 590.36 571.55 557.71 543.93 529.36 516.44 501.91 491.03 478.48 464.21 451.26 442.4 431.57 416.27 409.15 418.56 420.41 418.34 413.39 402.99 384.22 388.96 386.48 380.13 381.4 378.08 375.78 374.17 373.26 372.08 370.74 369.08 367.37 365.91 364.73 363.87 364.86 370.33 374.46 388.52 394.97 414.14 417.72 422.84 427.26 430.07 437.86 438.74 438.33 453.86 466.19 474.06 480.41 485.81 485.76 484.09 496.43 512.74 526.94 529.75 531.5 530.75 530.78 533.12 537.03 540.81 541.41 547.91 554.64 556.7 558.53 557.93 552.67 546.33 542.66 544.61 544.71 544.38 546.34 551.41 555.96 559.32 562.8 566.31 567.96 569.68 578.65 587.28 594.85 605.16 612.52 616.66 623.78 628.43 633.09 637.59 645.57 654.36 665.01 676.69 692.1 710.76 724.78 726.58 726.7 731.49 737.99 744.23 751.25 760.11 761.79 768.31 777.08 786.03 792.76 800.5 810.25 823.24 835.99 844.1 851.79 859.13 862.11 864.64 869.82 875.83 881.77 890.79 901.52 908.33 912.09 917.16 921.64 922 925.55 928.9 927.64 931.97 937.91 948.03 952.9 960.59 970.92 980.32 986.06 998.96 1011 1024 1032.5 1039.2 1047.9 1054.1 1060.8 1066.1 1076.3 1084.4 1093.1 1101.4 1105.7 1106.5 1117.7 1133.7 1149.2 1164.5 1173 1182.8 1194.9 1211.5 1223.8 1236.7 1249.2 1261.8 1271.4 1287.3 1290 1287.4 1282.8 1278.4 1277.5 1285.7 1294.3 1305
612.26 596.83 586.22 573.3 562.83 551.52 534.93 519.27 504.33 490.21 477.42 463.08 448.6 439.11 430.55 420.18 414.98 422.23 431.63 435.22 436.02 423.58 398.9 391.61 390.55 385.58 386.3 383.24 379.83 377.98 375.78 374.17 372.77 371.23 369.9 368.32 366.97 365.84 364.77 363.98 364.27 371.97 386.32 392.5 410.42 431.05 436.9 439.77 444.69 452.53 451.5 449.5 458.48 469.73 474.42 479.76 487.41 491.92 491.57 500.35 515.17 531.46 541.21 543.5 546.26 545.16 545.24 549 551.06 551.27 555.32 561.81 564.09 559.12 552.24 544.14 534.22 529.5 529.56 530.88 532.6 534.84 536.5 538.31 543.85 551.11 558.27 567.72 576.78 585.11 595.63 601 607.29 616.37 625.08 628.5 632.98 637.93 642.53 648.54 660.01 670.58 680.26 692.66 711.76 728.69 738.17 740.68 741.53 742.2 745.63 753.37 764.19 771 778.6 777.62 786.63 795.47 804.98 824.13 835.93 850.25 853.95 864.53 870.54 871.26 872.08 874.69 879.11 886.09 894.79 904.93 913.76 924.08 928.23 930.3 933.26 932.32 932.95 935.64 942.81 949.52 956.77 964.18 973.29 979.8 981.11 989.34 1000.1 1012.9 1024 1032.5 1037.7 1045.7 1052.7 1060.3 1067.1 1076.2 1086.3 1093.9 1100.5 1107.4 1115 1125.3 1138.9 1150 1163.6 1176.8 1188.4 1200 1213 1227.4 1240.7 1254.6 1264.6 1269.4 1277.2 1284.6 1297.2 1295.2 1289.1 1287.8 1297.9 1307.3 1316.5
601.71 589.25 577.05 566.02 555.41 539.93 526.87 516.81 498.85 483.54 468.49 450.45 440.08 431.91 423.8 432.29 430.61 436.08 442.98 449.05 441.74 416.22 398.02 393.64 389.48 389.45 390.57 390.02 386.96 382.33 378.2 374.31 372.99 372.09 370.64 369.18 368.02 366.88 365.78 364.79 364.02 364.95 371.67 385.28 394.12 416.34 432.08 438.06 450.84 465.51 467.04 464.51 462.77 476.07 480.07 482.76 489.19 497.19 496.5 505.21 517.52 538.68 554.17 557.88 559.78 558.73 558.3 558.31 558.73 562.88 567.54 566.19 559.56 552.63 544.39 534.39 525.53 518.65 517.68 518.3 520.01 522.13 524.61 530.13 544.15 557.38 569.84 578.97 586.68 596.18 601.41 610.22 614.68 622.53 629.06 635.16 639.98 644.62 648.81 656.29 665.34 675.61 687.09 698.31 716.35 732.83 741.53 745.92 746.05 746.45 748.16 753.98 765.17 771.04 776.37 785.53 792.67 799.57 810.22 821.84 835.54 847.13 860.18 867 870.27 874.48 875.23 879.03 883.92 890.73 900.47 911.5 921.87 929.98 933.82 937.87 946.73 945.83 946.8 948.6 952.4 960.7 970.05 976.24 985.13 991.97 993.29 1000.8 1006.6 1015.2 1027.3 1040.2 1045.4 1051.1 1054.6 1061.3 1069.9 1078.1 1085.9 1092.4 1100.1 1111.2 1119.7 1130.5 1144.3 1158.4 1174.5 1183.3 1198.7 1213.2 1235.2 1241.2 1247.3 1254.7 1259.4 1262 1266 1274.3 1288.4 1301.3 1299.1 1297.9 1308.2 1318.9 1327.7
596.07 584.92 573.27 560.66 548.52 528.87 515.15 503.03 492.1 475.72 457.73 443.03 436.34 429.91 432.19 442.6 450.77 454.89 459.3 458.96 436.11 410.53 396.48 393.45 394.39 392.87 392.61 391.81 390.29 387.76 385.24 377.78 374.39 373.12 371.71 370.26 368.99 367.83 366.71 365.58 364.58 364.38 367.07 373.96 390.35 398.54 414.39 430.81 451.43 465.48 469.57 473.58 476.24 481.84 485.27 487.16 493.78 501.47 502.14 511.9 527.78 548.03 565.19 572.23 573.94 572.52 574.06 573.79 570.26 564.08 559.07 555.29 550.27 543.81 534.66 525.42 512.61 503.91 498.85 500.73 503.83 511.19 522.68 533.68 547.65 563.12 577.12 582.64 595.58 602.07 609.13 616.04 625.3 631.9 638.3 643.76 648.51 655.44 661.29 668.67 676.13 683.18 692.93 706.46 725.69 736.87 742.35 745.43 745.91 746.93 749.31 758.16 764.67 770.37 773.38 779.04 786.39 792.49 800.81 812.91 825.23 839.31 852.01 860.6 868.8 877.29 879.24 883.45 889.52 898.1 906.91 919.29 924.46 931.73 937.9 942.43 952.04 961.88 962.57 961.09 961.15 968.57 981.42 988.97 993.34 998.3 1005.4 1010.8 1017.5 1025.8 1034.1 1051.8 1059.6 1065.6 1067.9 1070.7 1076.4 1083.7 1089.6 1097.5 1102.7 1113.1 1123 1133.8 1148 1161.7 1178.2 1192.2 1214.8 1224 1233 1240.5 1243.9 1249.8 1255.3 1257.7 1263.8 1271.2 1282.6 1293.6 1302.4 1308.5 1318.5 1329.4 1340
592.87 578.28 566.82 555.51 537.97 520.64 502.64 489.05 475.58 464.97 451.26 446.21 448.92 439.47 447.51 460.72 473.66 467.9 465.33 450.12 421.63 402.84 397.82 398.58 397.95 395.84 394.65 393.72 393.6 389.44 389.58 390.16 378.87 374.43 373.16 371.74 369.85 368.69 367.56 366.48 365.39 364.38 364.7 369.77 381.83 391.89 404.5 433.64 446.02 463.23 469.13 473.23 477.92 485.26 489.46 492.23 498.9 507.56 511.95 522.04 531.88 556.55 573.06 577.23 573.42 567.69 562.54 558.76 556.06 550.25 545.83 541.69 537.6 531.58 522.63 508.83 496.28 485.22 481.49 487.16 497.14 508.49 524.11 536.01 549 564.25 577.65 582.95 588.44 596.19 602.89 612.15 621.51 635.06 641.63 650.51 657.73 662.61 670.32 679.17 685.75 692.63 704.3 718.49 733.62 736.29 736.35 737.2 738.11 740.4 745.51 752.49 759.33 764 768.25 772.35 779.18 785.58 792.4 802.61 814.21 826.35 842.65 857.09 872.46 878.99 887.54 893.26 899.83 908.49 918.74 926.14 929.37 942.08 947.11 950.79 958.94 967.73 967.94 964.69 962.51 974.01 987.36 998.38 1006.9 1009.3 1015.7 1022.7 1029.2 1035.6 1048.2 1064.2 1077.7 1088.3 1081.6 1083.2 1084.8 1089.8 1096.7 1103.7 1110.4 1116.5 1126.3 1134.3 1151.1 1173 1189.3 1201.5 1211.1 1221.3 1230.9 1238.6 1242.5 1247.5 1253.3 1258.5 1265.3 1272.2 1282 1290.7 1299.8 1313.8 1327.3 1338.4 1351.3
587.89 573.19 559.18 547.68 532.85 511.84 497.51 480.07 469.27 466.62 465.29 459.64 454.65 449.79 462.76 476.75 490.17 478.33 456.04 430.14 412.32 402.17 402.43 402.36 400.87 399.02 398.43 397.85 397.55 397.11 396.14 393.73 387.52 380.27 374.97 373.57 371.5 369.55 368.47 367.37 366.26 365.13 364.77 367.12 372.63 385.12 393.36 412.55 434.91 453.14 467.19 472.87 479.41 487.14 494.57 497.7 506.07 515.67 525.52 530.81 545.33 563.82 576.54 567.11 560.55 556.28 549.31 545.34 541.87 537.45 533.19 529.12 524.97 518.53 506.51 493.51 482.72 473.2 467.97 481.62 492.97 507.63 523.97 537.43 548.56 565.96 571.23 572.4 579.27 586.8 593.68 601.86 612.59 631.42 639.47 649.36 660.23 666.4 673.07 682.32 689.33 697.15 711.47 724.17 726.06 725.86 726.15 727.25 729.33 734.3 738.84 746.7 752.88 757.75 763.74 770.33 773.47 784.1 794.13 800.58 812.17 825.76 837.16 843.61 856.21 877.51 894.21 906.6 906.97 917.96 929.13 940.26 939.38 946.92 953.89 957.51 963.99 971.36 968.54 965.39 964.93 978.18 990.8 999.65 1013.8 1023.5 1031.2 1036.9 1042.5 1048.1 1063.1 1056.6 1063.2 1072.4 1079.9 1092.1 1104.2 1100.9 1101.8 1105.4 1108.9 1114.8 1126 1135.3 1146.6 1162.2 1179.7 1192.7 1207.5 1215.4 1225.9 1233.1 1239.9 1245.3 1252.4 1259.4 1266.3 1275.6 1284.1 1292.9 1304.9 1319 1330.3 1340.5 1351.5
580.59 564.33 549.76 540.21 528.17 512.79 495.55 483.37 481.37 484.14 479.95 470.39 456.12 464.35 475.78 489.8 483.12 475.7 454.82 424.49 409.67 407.18 406.77 405.16 403.31 402.44 402.94 404.22 403.15 400.95 398.96 397.22 394.77 388.16 385.09 377.23 373.82 371.23 369.34 368.24 367.11 366.13 365.83 367.75 369.72 379.08 389.07 394.47 415.22 436.39 457.1 470.45 478.84 490.09 500.94 504.37 513.02 523.71 533.66 541.81 557.05 570.94 564.28 557.59 551.64 542.16 535.04 531.77 528.26 524.39 521.08 517.71 513.68 506.58 493.84 482.02 474.13 462.52 459.78 478.31 492.14 508.52 522.89 533.88 542.38 553.55 558.78 563 578.54 591.66 603.4 610.43 617.58 630.63 639.89 648.23 663.15 668.01 672.78 686.17 694.48 707.03 711.91 709 706.86 708.49 717.54 724.64 730.28 736.78 743.72 750.3 757.75 765.49 773.22 780.42 791.56 801.32 806.76 812.35 817.71 824.23 832.3 839.71 847.57 867.31 886.94 903.79 914.49 924.76 935.22 943.69 950.28 952.61 954.92 961.7 964.44 970.17 974.87 974.15 976.1 984.72 996.18 1005.8 1018.8 1031.2 1047.3 1053.8 1055 1049.6 1045.8 1041.8 1051.2 1057 1065.8 1080.7 1097.2 1107.9 1113.8 1108.5 1119.7 1122.3 1126.9 1131.7 1140.9 1156.9 1173.2 1186.7 1202.2 1208.2 1217.5 1227.1 1233.1 1242.2 1251.3 1259.2 1266.3 1275.9 1286.1 1294.2 1303.7 1316.4 1326.9 1336.4 1344.6
577.31 564.13 551.86 541.97 529.39 512.89 498.66 489.6 496.96 498.96 496.52 474.87 474.29 482.57 487.51 477.37 470.58 460.18 447.48 426.37 419.48 413.81 408.05 407.99 406.76 408.34 409.52 409.28 407.63 406.25 403.89 399.88 397.38 393.2 392.86 387.83 378.32 374.17 370.8 369.09 368 367.38 366.81 368.61 369.48 371.76 382.77 390.61 398.36 424.11 443.93 468.16 479.45 492.67 495.56 494.89 501.7 518.24 539.65 549.01 561.29 564.43 555.24 545.1 535.15 527.74 523.28 518.84 515.33 512.35 510.17 506.86 503.21 494.69 480.64 469.46 466.99 457.7 457.49 474.47 490.79 506.67 518.82 525.91 534.85 543.37 551.76 565.89 577.12 585.66 601.06 615.33 624.04 634.34 642.08 651.94 657.08 661.69 669.48 681.98 694.13 697.97 693.37 690.02 699.57 713.23 727.35 734.11 740.2 746.12 752.27 760.53 767.76 778.99 787.53 799.32 806.22 813.03 817.39 821.69 829.43 835.87 840.91 845.63 853.48 871.2 889.21 905.03 913.9 923.57 933.43 943.9 952.28 961.62 962.62 965.66 968.6 976.54 983.46 983.92 986.63 993.48 1002.2 1014.3 1023 1033.3 1046 1039.5 1035.4 1030.6 1029.6 1030.3 1034.2 1041.9 1057.5 1070.8 1087.6 1095.7 1102.7 1108.1 1110.1 1111.8 1115.9 1124.7 1138 1153.3 1166.7 1180.9 1191.9 1205 1212.3 1217.5 1227.6 1237 1246.4 1255 1262.9 1271.7 1280.9 1286.9 1294.1 1304.6 1318.7 1328.1 1336.7
590.79 576.7 562.24 548.96 531.87 516.13 502.06 504.86 514.23 513.65 498.17 488.15 491.43 493.38 477.96 465.56 455.65 446.61 438.45 426.04 421.9 416.41 415.87 415.99 416.74 415.98 414.21 413.61 411.21 409.14 407.19 404.22 400.23 397.03 397.27 395.92 389.86 379.09 374.46 369.97 369.25 368.63 367.98 368.82 370.07 370.15 374.97 383.98 392.08 409.63 439.17 465.77 473.89 476.61 477.96 480.47 496.96 514.93 529.26 539.87 557.99 555.97 542.39 531.74 523.58 518.67 511.01 507.85 505.25 502.08 499.95 495.7 490.28 480.49 467.84 455.95 451.74 447.75 460.16 473.2 493.39 499.13 509.46 517.52 527.63 538.44 549.15 561.92 574.03 585.71 596.12 614.57 623.17 633.41 640.83 643.28 645 653.44 666.18 668.84 670.95 673.29 676.13 690.07 701.94 718.42 732.4 739.45 746.5 754.31 762.34 767.6 774.27 786.42 797.59 805.82 814.37 821.45 829.31 833.57 839.24 845.87 851.43 856.92 869.13 883.18 898.67 909.11 916.84 924.73 933.81 942.99 951.34 961.9 972.06 973.99 981.64 986.82 992.68 993.79 998.37 1004.2 1010.6 1016.2 1022.6 1038.2 1030.5 1023.5 1017.5 1013 1011 1011.2 1015.8 1036.9 1052.8 1066.7 1072.6 1078.1 1085 1089.7 1092.9 1097.8 1106.7 1121.2 1133.9 1145.3 1158.1 1171.4 1183.8 1199.8 1207.9 1216.2 1220.6 1231.3 1238.3 1243.9 1252.7 1260.1 1268.4 1276.1 1282.7 1295.9 1310.1 1320.3 1329.5
604.4 591.55 575.55 562.12 547.43 531.89 517.37 515.07 524.83 522.36 507.36 502.01 493.85 478.63 465.58 453.25 445.98 438.71 433.61 427.92 428.27 423.93 422.66 422.49 421.82 420.8 418.81 417.16 415.43 412.67 410.15 407.45 403.6 401.18 399.77 399.14 397.44 390.01 379.49 374.46 369.75 369.19 369 369.33 370.53 370.28 370.02 378.12 387.08 394.5 420.38 445.68 458.51 459.12 459.44 472.52 500.09 520.46 532.51 546.4 553.72 551.09 536.24 522.95 514.09 510.2 502.69 498.74 495.98 492.31 488.87 484.3 477.26 467.53 455.81 444.77 439.18 452.21 465.87 478.82 481.15 487.64 499.45 512.99 524.96 535.98 547.29 561.94 575.91 589.46 597.35 605.52 615.03 623.85 632.8 635.34 641.72 653.52 658.84 658.31 658.43 663.22 678.18 691.24 703.15 719.09 732.96 741.36 749.23 761.54 768.48 774.65 783.21 793.21 803.06 811.51 818.54 828.92 840.16 848.67 853.42 857.03 861.54 866.73 878.27 891.35 904.47 913.61 921.66 928.92 936.29 942.74 949.64 962.92 973.2 988.32 996.7 1001.9 1004.8 1005.1 1011.2 1015.6 1018 1021.1 1032 1024.3 1016.8 1009 1000.8 995.72 993.08 992.29 1009.4 1033.8 1050.1 1056.1 1060.6 1066.2 1070.1 1073.1 1076.7 1086.7 1100.4 1114.9 1127.2 1138.8 1151.3 1163 1180.4 1186.7 1201.1 1209 1216.6 1222.2 1228.6 1231.8 1237.5 1245.9 1251.6 1261.2 1272.2 1289.1 1304.7 1314.5 1323.1
610.37 595.46 582.56 566.93 547.6 544.01 531.93 531.08 529.21 515.39 507.72 498.19 479.71 468.35 454.73 446.84 441.45 440.34 437.14 431.61 436.87 432.35 429.7 428.36 426.52 424.04 422.51 419.78 418.05 415.7 413.39 411.23 407 403.53 401.7 402.84 402.03 396.43 390.65 379.59 372.92 369.74 369.72 370.53 370.59 370.35 370.11 374.18 382.57 392.02 400.31 429.7 443.62 444.7 452.63 469.19 497.61 515.06 524.23 533.57 543.49 543.87 530.24 511.65 504.16 500.39 497.62 487.68 484.01 481.06 477.47 471.68 462.72 455.86 445.28 436.29 441.97 456.92 468.91 468.83 471.02 479.82 494.12 511.05 523.82 534.38 546.63 561.13 575.78 584.9 591.06 599.65 608.61 619.41 625.6 631.22 637.09 643.37 644.56 644.91 647.8 663.06 679.25 692.09 703.81 717.6 730.11 739.42 748.93 762.73 771.71 782.16 791.22 800.33 809.23 816.7 824.92 835.81 845.73 857.69 864.69 868.04 870.99 875.17 884.17 898.05 908.14 916.99 926.12 933.21 939.08 944.27 953.98 964.88 977.17 994.14 1007.6 1015.5 1020.8 1018.1 1020.6 1023.5 1025 1019.8 1016.5 1012.9 1007.3 998.79 988.25 978.28 976.68 986.93 1010.3 1023.5 1033.4 1039.4 1046.4 1053.5 1058.3 1062.6 1069.6 1083.4 1096.5 1110.6 1125.3 1134.9 1145 1157 1168.7 1180.6 1187.5 1199.4 1206.1 1212.4 1218.9 1220.6 1225.8 1232.4 1244.4 1259.5 1275.1 1287.9 1301.1 1312.7 1322.2
599.3 589.47 573.62 561.3 556.85 558.84 552.75 542.68 528.43 512.42 500.04 486.4 474.84 468.98 458.63 448.84 446.73 446.46 441.21 434.16 441.11 437.51 435.05 435.24 434.86 428.75 426.84 424.8 421.96 419.63 416.8 413.31 408.9 405.04 403.57 405.86 403.7 398.91 393.97 390.01 378.84 370.02 370.21 370.44 370.71 370.5 370.24 371.01 378.51 389.09 394.51 415.98 426.69 429.76 451.58 464.16 482.5 499.45 512.55 517.05 527.23 535.6 525.41 505.17 492.1 486.58 487.8 486.98 477.93 470.35 463.43 453.94 443.9 436.83 432.56 429.61 441.01 452.23 457.18 456.19 462.86 478.07 494.32 507.77 519 529.48 544.42 556.08 568.02 577.13 585.55 597.8 608.8 611.94 613.16 614.69 617.88 621.79 630.29 636.42 647.47 664.07 679.69 692.26 702.66 715.21 724.73 735.37 746.38 756.94 772.1 785.27 794.48 805.21 815.21 824.56 833.59 841.31 849.64 861.41 869.18 876.25 881.72 884.87 892.13 902.39 912.17 921.9 930.12 936.55 941.85 947.22 959.25 968.58 984.16 1000.5 1012.1 1021.3 1028.9 1033.1 1029.8 1025.9 1015.1 1007.8 1002.5 999.39 996.15 986.52 975.85 964.52 964.67 983.38 999.29 1010.8 1017.7 1027.2 1034.4 1040.5 1047.7 1058.5 1069 1081.4 1093.2 1105 1118.4 1127.9 1135.6 1147.2 1155.6 1162.2 1175.5 1182.5 1190 1195.3 1199.8 1208.1 1217.4 1227.4 1241.2 1260.9 1279 1288.6 1298.6 1308.6 1315.1
594.77 584.98 575.61 568.09 566.47 570.27 562.13 548.91 525.56 507.03 497.45 485.98 479.16 476.21 466.24 452.44 451.97 447.05 441.83 445.01 445.61 442.09 439.04 437.58 439.51 435.89 431.34 429.63 426.24 422.87 419.26 414.83 411.38 410.15 407.08 406.39 406.48 402.38 398.01 393.57 388.22 376.49 370.09 370.33 370.61 370.7 370.43 370.11 374.13 383.9 391.5 396.03 406.75 423.55 455.63 473.09 480.71 486.08 496.21 499.72 507.92 517.84 515.98 503.08 491.68 477.07 471.54 471.22 470.52 462.76 452.47 438.38 430.71 425.95 423.47 431 434.06 439.67 445.49 450.96 464.81 480.05 488.96 499.01 509.45 523.51 536.53 546.95 558.44 573.55 587.86 596.96 601.62 602.97 603.9 604.83 607.31 614.27 623.02 636.52 648.92 664.2 678.87 691.12 699.35 710.8 718.71 727.92 737.41 746.8 762.33 779.37 791.6 802.88 814.79 826.98 837.61 843.7 854.44 862.64 871.68 881.69 891.15 894.82 900.71 908.66 917.7 925.58 932.67 939.01 943.95 949.98 963.01 974.05 991.09 1005.5 1018 1030.5 1035 1033.2 1025.5 1015.9 1007.6 1000.4 990.51 986.19 982.67 974.83 961.07 953.43 961.36 975.72 988.25 1000.9 1008.3 1016.8 1027.1 1041.3 1053.4 1058.7 1066.1 1076.4 1091.1 1099.2 1110 1120.2 1128.9 1133.7 1140 1146.2 1157.8 1171 1176.6 1181.6 1195.9 1206 1215.5 1229.4 1240.5 1256.8 1274.6 1290.7 1293.5 1297.2 1306
590.56 582.24 579.16 575.86 575.84 575.47 562.55 545.7 532.94 518.99 509.65 499.8 489.86 477.35 463.59 461.93 461.57 448.97 448.83 451.86 449.86 447.04 443.15 441.67 444.82 444.29 436.02 433.15 428.76 424.68 420.93 418.57 414.73 413.63 411.67 406.51 408.54 404.47 401.5 398.04 394.37 379.85 373.44 370.18 370.48 370.8 370.63 370.27 371.35 377.52 385.75 391.85 396.18 419.68 449.31 461.77 467.51 472.95 482.07 489.66 494.94 496.45 493.03 485.39 479.21 463.34 449.05 448.05 444.98 447.4 439.58 423.35 414.66 417.57 423.22 441.9 451.69 454.29 454.72 462.28 472.45 475.75 479.83 489.42 497.67 509.54 526.66 538.92 553.77 574.45 585.03 587.28 588.73 589.63 591.82 593.86 604.4 616.01 627.46 634.68 646.66 660.89 674.13 685.45 692.98 702.03 709.06 715.83 725.67 732.59 740.86 749.27 757.07 769.75 780.4 797.4 826.04 839.77 855.74 864.81 872.79 884.97 894.83 899.76 907.19 912.95 921.43 928.19 934.96 940.97 946.39 956.02 967.72 980.79 998.43 1010.4 1025.6 1033.5 1035.4 1027.2 1010.7 1000.1 988.93 978.57 975.27 971.33 967.13 957.23 947.22 943.45 955.32 972.6 997.39 1006.6 1015.5 1026.7 1036.4 1048.5 1062.2 1069.6 1072.9 1077.7 1091.2 1096.9 1100.4 1110.3 1117 1122.1 1132.3 1141.2 1147.9 1157.1 1170.5 1184.5 1200 1209.9 1219.3 1231.2 1248.4 1260.9 1273.8 1290.4 1292.3 1296.2 1308.5
594.31 591.48 588.91 585.69 583.18 582.8 565.59 559.4 552.87 538.04 525.52 505.06 491.54 485.99 477.53 475.01 466.73 452.28 456.44 455.5 453.2 452.48 451.34 450.94 451.46 452.78 447.21 440.15 432.84 426.76 424.99 423.41 420.02 417.83 415.38 409.41 410.49 404.25 402.17 399.67 394.72 391.15 378.31 370.43 370.31 370.68 370.85 370.47 370.08 373.49 378.54 386.94 392.55 405.82 431.13 446.5 453.21 459.72 469.02 475.19 478.45 477.01 473.26 468.3 462.1 445.82 432.23 426.75 424.49 427.4 424.49 411.91 412.28 426.01 432.04 430.09 439.05 445.27 450.33 454.43 457.57 461.12 467.48 476.9 488.41 498.25 514.36 529.74 544.4 556.54 568.35 574.66 580.02 583.7 588.02 596.56 607.38 617.66 627.16 632.98 640.04 649.79 661.21 673.59 678.59 680.35 684.16 690.64 695.47 702.05 711.05 717.31 723.26 733.85 744.11 759.79 778.27 800.76 837.36 868.44 880.74 890.14 898.94 907.83 913.28 918.39 924.81 932.4 940.68 945.74 952.11 962.17 972.84 988.3 1003.7 1015.1 1030.3 1032.8 1029.1 1018.5 997.07 977.1 966.03 961.97 959.67 957.18 952.81 944.1 937.2 933.46 945.89 970.32 997.41 1009.1 1020.3 1031.6 1041.7 1055 1067.5 1076 1080 1085.8 1090.4 1092.8 1094.8 1104.4 1114.2 1126.3 1133.1 1141.5 1149.3 1162.5 1173.8 1188.2 1202.8 1212.7 1223 1237.2 1252.8 1267.4 1282.3 1291.2 1293.5 1298.8 1309.4
604.7 600.62 597.96 598.25 594.64 591.67 577.36 572.57 565.25 548.62 525.85 511.11 508.88 503.9 498.54 487.49 467.54 463.51 468.1 459.54 461.65 460.55 463.67 463.45 460.65 460.26 457.22 452.41 442.06 432.17 428.47 426.27 423.1 419.13 417.66 412.21 411.05 407.33 403.39 401.41 398.79 395.79 387.35 375.33 370.14 370.54 370.95 370.72 370.27 371.35 374.33 380.87 389.94 393.89 411.33 430.96 442.54 449.75 455.83 461.69 463.84 463.43 460.8 455.7 446.69 427.26 414.66 409.47 408.77 412.47 416.06 403.31 423.86 429.41 437.35 442.55 440.42 443.55 449.39 456.17 470.29 477.68 477.76 477.97 483.47 494.62 510.47 523.54 532.27 538.96 552.11 563.86 573.44 579.82 588.03 595.77 607.32 614.87 621.08 628.74 633.93 642.02 646.96 649.29 653.6 658.09 662.67 666.1 670.81 678.07 689.78 700.78 711.53 723.6 733.31 742.84 755.36 774.58 797.34 827.67 876.26 887.85 901.28 912.21 920.9 931.02 935.78 940.9 948.47 957.2 962.96 971.38 980.14 992.68 1006.8 1018.1 1027.8 1027.8 1024.6 1010.6 992.03 969.75 954.04 948.78 946.82 945.67 941.88 933.58 927.16 922.73 936.39 957.53 977.87 1001.6 1017.4 1031.6 1042.3 1052.3 1060.9 1067.3 1072.1 1078.5 1082.9 1089.9 1100.8 1113.3 1124.3 1134 1139.5 1144.8 1159.3 1167.5 1176.8 1193 1205 1215.7 1227.8 1238.8 1257.1 1272.9 1282.9 1287.1 1291.7 1297.3 1305.8
615.46 612.42 614.22 609.54 604.66 602.04 595.52 580.54 566.21 551.11 533.09 530.5 527.23 520.51 508.34 492.98 472.92 474.81 474.83 468.58 469.94 474.58 475.78 474.6 471.27 468.15 465.23 458.39 448.32 439.84 433.98 430.71 428.01 424.33 421.55 415.68 411.9 410.63 406.17 404.8 400.31 396.82 393.48 379.77 371.35 370.34 370.8 370.98 370.45 370.51 372.75 374.82 383.59 391.36 394.75 418.16 432.35 438.73 442.06 448.98 450.82 450.58 447.7 439.32 424.5 408.15 397.84 395.02 395.62 398.85 404.51 399.66 419.55 432.32 444.4 452.64 455.3 458.4 465.17 471.19 478.18 492.5 495.83 497.29 499.73 503.5 509.75 514.46 523.67 538.89 553.56 562.65 570.96 579.12 587.85 596.51 606.41 610.15 613.51 621.62 630.27 635.05 641.9 644.17 646.16 647.98 650.78 657.66 667.89 679.78 691 701.79 710.29 719.58 731.19 741.81 752.25 765.35 779.21 796.24 812.57 841.15 879.78 887.72 898.06 914.85 933.51 946.66 957.44 965.34 973.59 981.72 988.99 998.34 1010.3 1019.5 1022.3 1017.3 1011.5 1002.2 983.54 964.08 946.75 937.56 935.12 935.52 931.49 923 909.51 908.28 924.71 940.56 953.98 991.11 1011 1026.2 1035.6 1044 1052.1 1060.7 1072 1081.8 1087 1093.8 1105.2 1118.8 1131 1140.6 1147.1 1150.3 1162.7 1169.2 1182.8 1197 1207.7 1218.7 1234.9 1250.4 1264 1274 1278.8 1284.2 1291.9 1296.6 1300.3
626.22 625.48 625.08 619.84 615.8 610.99 604.61 589.49 575.93 558.47 552.26 544.67 534.74 523.21 514.43 497.44 484.26 492.09 485.81 475.78 475.31 480.33 484.37 483.44 479.81 476.8 473.42 465.65 454.41 444.81 439.15 434.92 431.42 427.85 425.8 421.33 413.14 411.26 408.5 406.35 405.08 403.16 398.14 392.85 377.63 370.1 370.59 371.13 370.74 370.03 371.96 373.84 378.07 386.85 392.05 401.47 425.54 429.22 433.53 438.44 441.75 440.52 432.89 421.17 404.8 394.87 391.44 389.19 391.12 394.21 395.28 395.42 414.92 430.83 445.54 457.46 461.68 465.66 473.58 478.14 480.73 496.29 504.44 509.61 513.23 515.63 520.27 530.2 542.2 553.71 562.4 569.49 573.59 579.93 592.23 602.09 607.19 610.51 617.25 623.79 630.57 635.46 639.72 640.91 642.54 644.69 647.85 655.79 668.7 680.35 691.44 701.78 709.98 717.54 728.39 741.18 752.57 764.11 771.72 782.63 794.85 817.01 835.3 854.06 876.29 895.18 916.06 937.12 956.37 968.94 978.4 987.77 994.53 1004.3 1010.7 1005.2 1000.3 995.99 990.99 981.99 968.15 957.09 941.9 927.44 922.26 923.87 919.33 906.73 892.68 894.53 911.57 928.66 943.32 964.16 991.15 1011 1027.6 1040 1056.1 1069.7 1081.9 1090.2 1098 1105.4 1112.3 1122.1 1135.7 1146.5 1151.6 1161.1 1166.4 1173.7 1190.7 1203.1 1212.1 1222.2 1241.4 1257 1266.1 1269.3 1274 1284.3 1290 1292.9 1297.4
638.14 634.74 634.79 630.8 624.47 620.9 604.83 589.03 574.21 570.83 568.71 555.67 544.53 533.94 524.12 502.66 499.11 503.48 496.16 483.56 484.01 493.45 493.09 492.56 488.5 483.55 478.97 470.36 458.9 448.22 442.18 437.04 434.7 430.79 428.45 425.59 413.92 414.54 409.3 406.45 408.63 407.19 401.75 396.5 389.11 375.22 370.21 370.79 371.03 370.3 371.13 372.94 374.69 381.95 388.21 393.2 409.25 419.64 425.19 427.01 430.27 429.18 421.93 405.72 395.48 390.1 388.55 390.12 391.28 391.75 393.24 397.36 412.36 427.59 443.05 457.24 461.72 464.96 474.07 482.81 484.14 493.75 503.23 512.16 520.63 527.98 537.19 550.33 558.41 564.51 568.68 574.62 576.54 581.53 593.38 601.05 606.41 613.61 620.03 627.15 633.18 636.71 638.4 638.5 638.91 642.27 647.18 656.76 668.28 679.88 691.45 701.45 709.68 717.22 726.38 736.67 748 761.49 771.99 781.72 792.62 802.32 813.77 836.43 858.03 874.57 895.61 914.97 936.06 955.49 972.54 984.55 991.51 997.89 988.68 977.73 967.33 960.24 956.6 948.34 945.61 940.85 928.75 919.19 912.3 912.59 907.45 895.43 881.78 874.51 895.22 913 926.04 947.81 966.9 985.92 1025.7 1043.8 1060.7 1076.7 1088.4 1098.2 1108.4 1116.9 1125.8 1131.9 1140.9 1149.1 1160.7 1167.8 1173.5 1181.6 1198.8 1209.2 1217.6 1229.1 1248.2 1258.5 1260.4 1266.6 1276.2 1282.9 1284.1 1286.9 1293.9
651.8 649.24 644.49 638.37 635.39 627.42 604.07 589.86 584.68 589.14 581.66 569.16 555.89 547.86 532.06 514.15 512.27 515.39 509.71 500.48 502.62 504.4 504.42 502.51 498.43 489.4 481.81 473.12 462.45 450.48 444.27 439.83 441.51 435.28 429.76 426.22 417.43 417.16 410.78 408.31 411.65 408.91 404.1 392.79 385.58 383.97 375.04 370.9 371.37 370.79 370.18 371.89 373.72 377.82 384.54 390.7 396.79 407.8 412.14 414.75 416.4 418.75 413.13 398.36 389.86 387.25 389.58 394.91 394.23 393.24 393.91 399.91 417.67 424.55 437.85 451.27 459.09 463.17 473.93 485.33 488.17 494.54 504.74 516.91 526.88 539.3 551 560.12 567.29 574.25 575.55 576.96 578.29 581.98 592.42 600.89 603.94 614.61 621.84 629.67 633.82 636.05 636.22 636.36 638.42 642.87 648.78 658.8 668.72 679.31 690.65 700.54 709.58 719.03 728.32 739.64 748.72 758.45 769.47 780.09 787.1 794.28 799.83 826.05 841.54 856.27 870.42 891.57 908.61 926.84 942.86 952.98 959.72 961.15 955.41 941.68 927.96 921.24 919.59 920.8 924.94 924.49 917.14 909.48 903.51 901.71 900.06 885.45 871.83 862.77 872.23 893.94 913.63 930.63 948.11 963.47 1013.5 1040.3 1056.7 1073.3 1088.3 1099.6 1112.1 1121.9 1134.2 1141.6 1147.7 1157.1 1168.1 1180.4 1186.3 1192.6 1205.1 1215.2 1222.3 1237.4 1250.3 1254.9 1260.9 1267.2 1273.7 1275.9 1275.7 1279.9 1287
665.24 662.18 654.35 647.33 639.48 626.04 611.19 597.86 598.55 604.84 600.01 578.52 568.25 553.2 535.71 526.48 530.33 528.75 517.29 508.63 514.65 516.47 515.16 511.64 504.32 493.42 484 475.46 465.42 454.29 448.22 446.63 443.04 437.54 430.11 426.07 419.78 420.28 412.03 409.55 413.32 412.91 403.59 401.5 403.63 399.02 382.58 370.53 371.23 371.37 370.1 371.61 373.35 375.02 382.95 388.74 393.12 398.76 403.6 405.14 406.22 405.65 406.71 392.99 387.13 388.67 397.81 408.72 408.14 396.05 393.43 399.16 408.31 417.57 429.28 439.89 450.63 465.24 477.12 486.32 492.02 499 513.14 520.42 530.68 543.79 553.79 560.96 568.26 575.36 576.77 577.51 578.77 581.92 594.89 601.66 603.79 612.09 621.97 629.12 632.29 633.33 633.56 633.59 636.86 643 650.68 661.08 670.32 680.22 690.4 699.02 709.39 719.72 731.13 744.84 754.96 761.15 770.04 781.36 791 799.05 809.7 826.11 835.74 847.14 860.8 872.62 888.34 899.79 921 935.57 938.02 939.85 935.11 918.13 898.74 898.42 898.85 900.7 906.7 906.74 903.62 899.25 892.25 883.77 879.56 872.16 860.9 848.23 857 869.69 896.69 910.98 925.21 943.3 992.1 1027.9 1044.9 1061.9 1078.6 1093.1 1107.6 1120.8 1132.9 1145 1153.6 1161.5 1176.3 1186.2 1195.5 1201.7 1214.2 1221.7 1231.5 1239 1243.5 1247.3 1259.8 1265.9 1268.6 1268.6 1271 1273.8 1278.6
674.48 668.98 664.67 654.25 647.37 635.92 625.27 613.41 613.35 617.37 608.17 590.69 575.63 552.92 545.45 544.24 544.02 539.93 519.27 521.96 527.15 528.66 523.11 515.41 503.3 494.86 485.54 478.13 468.58 458.58 453.88 448.97 444.23 439.72 433.42 426.06 423.17 422.97 414.06 410.09 416.15 421.27 416.44 413.49 416.67 408.56 390.04 370.12 371.2 371.28 370.14 371.38 372.9 374.38 380.88 386.76 391.57 393.48 396.78 402.35 404.46 407.13 394.54 385.29 387.01 392.43 402.74 418.73 423.63 408.76 394.81 395.54 398.26 399.96 415.46 423.3 431.3 444.6 463.29 481.17 493.84 498.59 511.14 520.89 531.78 539 548.49 557.03 567.68 570.45 574.14 575.06 576.24 579.32 587.13 594.13 600.87 609.2 617.42 623.85 629.01 630.18 630.68 631.55 636.65 643.87 652.81 663.06 673.12 681.78 690.96 699.15 709.59 720.33 732.72 746.66 759.14 766.5 774.34 788.95 799.45 810.89 823.36 834.03 843.02 850.01 857.96 865.88 877.17 893.54 910.78 919.7 918.31 921.8 913.11 890.99 879.95 874.02 873.96 877.15 886.03 888.03 886.27 883.1 878.26 866.92 854.41 851.81 847.35 831.51 833.21 851.52 878.75 901.03 922.43 947.46 978.52 1000.8 1024.9 1045.2 1064.4 1081.9 1097.4 1112.4 1127.9 1141 1155.4 1163.8 1175.7 1188.6 1198.2 1208.7 1219.5 1227.8 1230.4 1233.3 1236.9 1237.7 1244.4 1260.1 1264.5 1262.6 1262.1 1268.2 1270.2
683.2 675.89 671.61 664.81 655.38 650.79 635.93 629.03 630.47 624.99 608.12 590.56 573.3 561.3 560.53 558.53 556 541.82 521.68 533.24 537.81 538.89 527.37 515.19 503.13 493.38 483.68 476.9 469.58 462.92 456.99 452.02 445.17 440.88 435.61 428.48 428.27 426.65 420.43 413.03 422.8 426.01 421.71 422.83 426.1 416.65 396.97 378.77 370.66 371.88 370.75 370.76 372.24 373.76 377.11 383.6 388.45 388.89 392.93 398.49 399.11 392.08 384.59 384.74 389.42 394.04 400.48 422.76 434.06 424.28 406.38 396.54 395.7 397.14 398.6 402.5 411.7 426.53 443.13 467.56 484.92 495.51 503.61 518.49 530.36 538.94 543.71 553.6 562.62 564.43 567.23 570.47 572.91 575.18 579.81 585.55 591.46 598.6 605.06 615.22 620.72 623.7 626.23 629.57 636.24 644.13 653.73 664.12 675.04 683.4 692.38 701.74 711.42 722.53 735.33 746.92 760.58 771.81 782.54 795.07 806.6 816.78 828.24 840.3 849.78 858.32 865.38 873.01 883.54 898.24 907.93 906.61 901.84 898.09 886.22 868.7 856.46 849.53 854.11 859.62 864.91 868.05 868.8 867.4 860.08 848 835.96 830.28 827.59 816.26 824.46 850.43 871.58 901.74 922.17 943.1 961.72 979.5 999.76 1026.6 1048.2 1069.4 1087.4 1102 1117.7 1133.7 1148.8 1162.6 1173.7 1189.1 1199.8 1207 1212.7 1216.7 1216.8 1220.2 1225 1221.9 1227.1 1236.3 1255.8 1253.7 1253.7 1255.7 1258
692.74 685.36 676.76 673.33 667.62 662.15 653.59 642.99 640.53 625.31 609.9 600.06 580.62 577.51 577.09 574.15 565.18 548.62 536.91 543.2 545.81 544.15 532.37 514.45 501.52 491.01 481.52 475.37 471.1 467.26 461.28 454.1 447.5 443.53 439.4 433.72 435.84 430.48 427.84 419.95 425.32 427.78 424.15 426.37 430.05 425.69 404.04 383.46 372.3 371.73 371.36 370.25 371.74 373.22 374.85 380.2 382.68 384.48 385.82 388.16 387.3 383.99 383 386.53 391.45 395.84 409.35 428.23 439.31 439.18 421.85 413.57 405.95 403.85 401.44 400.35 404.05 415.93 433.58 456.17 479.96 492.56 501.94 513.35 525.41 537.6 546.16 553.67 559.39 560.54 563.82 566.96 569.66 571.65 573.18 578.61 585.14 591.34 596.91 603.22 610.13 615.68 621.98 626.89 635.35 643.91 653.54 664.91 676.3 685.33 693.87 704.05 713.37 724.63 737.01 747.6 761.42 777.19 789.37 798 808.44 818.88 830.46 842.22 853.42 862.01 869.59 879.98 888.93 898.37 899.23 893.24 885.46 880.5 868.34 851.52 841.9 836.69 838.62 842.15 844.16 846.22 851.63 851.41 843.25 830.5 818.61 809.79 805.16 807 829.48 847.74 866.44 891.77 911.79 926.34 938.98 957.55 977.62 1000.9 1028.4 1059.2 1082.7 1097.6 1112.8 1128.7 1145.4 1160.4 1170 1183.5 1193.8 1198.1 1202.1 1206.1 1207.5 1212.8 1208 1208.3 1217.9 1235.4 1239.2 1236.5 1238.3 1242.3 1245
704.13 696.87 689.45 680.08 679.02 680.94 670.51 654.83 641.41 628.24 618.4 605.49 600.58 593.03 588.78 583.36 573.44 555.42 551.28 552.98 554.8 550.89 532.23 512.94 498 489.31 488.91 483.9 475.71 471.41 466.72 457.85 449.4 446.88 443.87 439.64 437.54 432.66 432.54 428.06 427.94 429.82 428.49 427.38 430.49 426.86 407.12 385.6 373.99 370.82 371.92 370.46 371.08 372.88 374.66 377.45 378.98 379.21 379.29 379.56 380.13 382.02 385.21 386.74 388.36 401.31 415.44 431.92 441.63 451.9 442.28 428.84 419.31 415.56 411.67 407.9 405.05 414.67 432.37 453.59 478.7 492.89 502.24 509.15 520.94 533.73 545.82 552.05 556.55 556.59 558.26 562.75 566.17 567.57 568.93 572.94 578.64 584.75 590.57 597.4 602.82 605.96 616.11 624.76 634.2 643.23 653.14 666.03 677.73 687.46 695.84 706.11 715.12 726.63 738.87 748.66 764.13 780.2 792.76 800.89 810.03 820.34 830.55 842.26 855.28 867.34 877.78 885.02 888.8 888.86 883.3 876.05 866.54 857.81 848.62 840.51 831.24 823.97 823.73 826.52 826.14 826.4 828.96 825.7 820.99 814.27 803.7 795.62 792.03 806.93 824.95 843.06 858.57 872.39 890.62 905.7 919.37 936.67 958.76 980.89 1033.3 1069.3 1090.6 1103.9 1117.4 1132.6 1146.3 1155.4 1161.4 1171.5 1181.2 1185.1 1189.7 1194.9 1199.6 1200.1 1192.1 1201.7 1219 1225.7 1221.6 1213.6 1225.6 1227.8 1231.6
712.3 706.13 701.17 693.93 686.88 686.69 682.44 669.78 650.33 637.69 630.05 618.7 609.44 603.77 599.35 590.28 576.81 560.24 560.63 562.98 562.67 553.13 530.43 510.34 501.6 505.26 504.79 501.64 488.26 477.94 471.42 465.09 457.14 448.73 444.7 443.83 440.9 436.32 435.6 432.5 431.47 431.83 431.06 430.37 431.51 430.29 414.2 392.85 378.92 370.28 372.15 371.48 370.51 373.2 374.02 375.67 375.98 375.92 378.86 381.16 383.1 384.87 387.25 388.21 389.79 406.92 420.45 434.92 445.16 455.97 455.47 445.21 437.09 430.92 425.77 417.51 407.47 418.58 434.7 452.01 475.7 494.8 505.53 508.95 516.72 530.62 542.66 547.8 551.69 553.13 553.24 560.48 563.01 563.39 565.79 570.68 573.84 577.58 582.74 588.86 595.64 599.53 611.58 622.28 632.38 641.8 651.95 666.33 678.5 688.89 697.67 707.53 717.16 728.08 740.37 749.96 764.77 780.23 794.32 804.84 815.49 825.78 835.89 847.37 861.69 875.72 880.19 879.33 876.42 871.9 865.5 855.8 845.53 838 833.1 828.17 818.71 808.76 806.92 810.72 810.51 807.47 806.8 805.63 800.63 797.13 792.18 787.41 791 806.42 820.86 835.85 847.96 861.08 874.43 889.22 905.5 920.57 939.48 963.08 1035.2 1075.5 1091.8 1102.2 1110.3 1126.2 1134.1 1138.5 1145.9 1156.6 1158.7 1170.5 1179.2 1182 1184.8 1187.6 1175.4 1192.7 1192.1 1199.4 1192.4 1191.5 1206.7 1209.9 1218.1
725.36 719.54 711.87 704.52 701.02 692.53 692.28 682.7 673.25 649.98 636.69 624.37 619.76 613.67 606.46 597.82 579.1 570.38 571.38 571.39 562.32 551.86 528.64 515.46 517.09 522.51 522.28 510.2 498.69 487 475.56 469.53 465.11 453.67 448.96 448.37 444.98 439.01 439.52 436.27 433.92 433.4 432.79 432.22 433.4 430.36 417.75 400.43 381.84 371.01 371.08 371.3 370.08 371.82 373.19 373.47 374.31 377.61 383.47 389.75 400.36 395.7 391.14 390.33 398.61 412.83 426.73 437.97 448.83 459.5 464.43 460.03 452.24 445.19 438.13 425.55 409.95 424.4 439.25 453.46 470.63 492.2 505.7 510.28 514.93 527.08 539.41 543.67 546.99 549.28 548.2 555.49 559.42 559.39 563.03 566.57 570.26 572.57 574.82 580.75 587.73 595.56 605.56 619.27 629.7 639.13 648.21 662.9 676.29 687.48 696.91 707.61 718.5 729.26 741.79 752.23 766.79 781.65 796.02 808.21 820.31 833.15 843.42 856.05 865.54 867.28 864.73 861.46 858.63 854.32 846.6 834.77 825.26 819.75 817.43 812.73 804.06 794.55 790.56 793.93 794.51 790.62 787.63 787.13 784.13 785.26 784.18 779.36 789.35 800.99 815.72 830.74 840.53 852.09 873.31 886 898.96 912.67 927.25 955.79 1014 1043.9 1054.3 1079.9 1096.7 1106.4 1113.5 1120 1127.4 1129.1 1127 1149.2 1160 1164.7 1169.6 1177.3 1157 1178.6 1171.8 1165.5 1161.9 1180.3 1189.2 1201.5 1205.8
736.98 735.87 730.46 725.19 711.03 702.17 697.26 693.18 681.62 668.45 649.73 634.96 629.08 622.62 611.34 601.71 586.86 584.12 578.11 568.77 558.97 548.78 527.36 528.42 533.41 538.24 529.54 513.95 502.83 489.82 477.3 472.67 469.52 465.57 457.57 455.3 449.89 443.75 442.18 439.75 436.25 435.22 434.54 434.13 434.75 431.75 421.26 404.95 384.91 376.13 370.3 371.51 370.09 371.12 371.87 373.19 374.51 378.1 384.47 389.4 397.01 405.54 409.05 405.16 413.48 420.33 431.19 441.03 452.2 463.97 472.56 473.87 469.26 461.89 447.59 428.75 412.17 421.47 433.87 446.75 463.65 484.93 504.35 508.71 515.74 521.56 533.8 540.7 542.88 545.66 545.52 550.53 555.54 557.11 560.23 563.36 566.51 569.25 571.56 576.68 585.12 594.12 605.31 616.98 624.2 634.32 643.78 653.74 668.63 682.42 693.55 704.92 717.99 730.08 743.02 754.94 769.26 782.01 795.24 807.49 819.47 835.23 846.29 853.58 854.55 853.66 848.63 840.14 834.97 830.68 824.42 816.85 808.18 801.2 799.72 796.33 790.2 781.83 775.3 775.77 775.94 773.79 769.98 769.69 768.69 770.4 769.89 775.34 784.67 795.79 808.79 825.33 835.13 848.8 873.52 886.5 898.01 909.44 923.62 959.31 1000.1 1016.9 1034.7 1051.2 1076.4 1086.2 1093.5 1101.1 1109.2 1111.9 1113.4 1129.1 1138.2 1149.2 1157.2 1148 1137.8 1146.5 1142.9 1140.2 1156.7 1170.1 1183.9 1190.1 1192.1
760.63 756.21 750.73 734.85 728 717.38 706.89 697.62 688.36 675.31 659.3 647.65 641.14 629.03 617.42 607.03 597.44 588.83 577.26 566.63 557.03 548.15 542.18 548.92 554.08 544.87 529.82 515.32 503.68 488.82 483.45 479.82 477.01 473.68 467.73 461.69 453.83 443.42 441.47 440.44 439.5 438.24 437.48 436.8 437.5 435.28 426.84 409.75 392.58 381.67 373.25 370.95 370.01 371.21 372.35 373.21 374.07 374.94 381.51 388.08 392.73 396.52 408.76 420.97 423.23 428.8 435.18 444.56 456.8 468.9 479.05 483.09 479.62 475.07 452.79 432.62 414.69 417.74 428.4 441.6 458.15 480.23 500.72 506.61 515.1 520.92 530.48 536 538.67 541.51 541.45 546.33 551.75 553.94 556.95 561.09 563.45 565.68 569.12 573.97 582.83 591.35 599.77 611.98 620.55 626.23 637.23 645.99 657.26 675.21 688.35 699.44 714.79 729.62 743.05 755.43 769.03 781.4 792.52 805.7 816.15 828.51 837.52 838.8 834.21 826.73 816.71 809.31 808.31 809.47 809.6 802.69 794.71 787.14 783.23 780.21 776.34 768.12 759.68 755.78 755.9 754.12 749.46 751.73 755.24 758.15 767.44 775.32 787.33 798.08 812.07 827.02 838.36 849.65 866.84 882.28 895.97 908.33 923.08 955.78 985.22 1012.8 1026.2 1028.2 1032.9 1044.5 1051.8 1077.3 1085.9 1091.9 1102.5 1113.7 1118.6 1124.3 1113.4 1115 1115.8 1122.4 1120.9 1131.8 1146.1 1160.1 1172.7 1174.2 1178.4
774.31 767.13 759.48 751.35 739.06 731.81 724.9 703.95 690.96 677.77 665.75 653.62 646.14 633.62 621.37 610.79 601.28 590.05 578.7 571.28 565.74 560.11 560.85 565.76 559.38 545.45 527.87 514.31 502.29 498.18 493.23 489.02 485.85 481.79 475.86 466.42 456.51 445.22 445.41 445.54 443.97 441.49 440.56 439.57 440.25 437.17 430.21 414.51 399.13 384.96 379.55 370.63 370.31 370.73 371.6 372.46 373.33 374.32 377.01 386.55 391.16 393.55 398.86 419.23 435.26 443.48 444.83 449.1 461.36 475.02 481.57 488.66 487.42 475.71 457.9 443.33 427.97 417.15 423.35 438.27 454.97 472.24 484.19 491.04 494.99 505.15 523.79 530.59 533.65 535.87 537.37 543.35 548.44 551.17 553.72 557.28 560.78 563.09 565.94 572.14 579.59 587.1 594.99 603.83 615.83 621.74 629.31 639.64 647.49 666.25 681.43 693.9 708.93 726.38 739.48 752.55 763.78 774.04 786.11 798.59 808.85 818.82 826.25 825.24 816.45 804.36 790.47 784.04 784.19 787.41 791.04 787.74 781.6 774.59 769.14 765.84 762.27 755.53 747.29 739.28 736.96 734.46 732.41 736.47 751.95 761.14 767.12 774.29 788.58 803.92 820.02 834.54 846.36 859.37 875.03 889.21 901.22 920.87 928.68 949.47 978.81 993.77 1001.9 1004.7 996.32 1005 1012.1 1019.7 1052.9 1070.8 1093.5 1095.6 1096.8 1092.6 1083.2 1088.4 1075.3 1101.6 1106.3 1118 1131.5 1147.8 1156.9 1159.7 1164
790.11 778.99 768.95 757.88 751.36 741.98 729.68 710.21 691.72 680.68 669.79 659.54 651.77 640.34 629.49 616.96 605.31 598.65 588.37 584.51 580.75 579.48 580.11 569.57 555.78 543.35 526.87 511.75 515.08 511.95 505.79 502.66 498.51 490.85 483.06 472.79 459.04 449.09 448.22 448.45 446.43 443.78 442.87 441.95 442.21 440.36 433.15 422.13 407.01 398.3 383.18 375.18 372.18 371.79 371.39 371.71 372.83 373.9 374.91 385.35 390.89 392.96 395.04 415.52 435.83 450.86 457.06 459.23 466.08 476.34 483.59 492.72 496.91 477.29 464.45 455.49 442.49 424.27 417.56 429.78 443.03 452.59 463.51 470.2 477.66 493.36 507.83 516.22 522.4 528.75 532.61 536.28 545.09 549.17 551.87 553.99 558.59 561.87 564.3 568.79 574.87 583.56 591.35 598.27 608.28 618.14 624.8 634.64 646.88 660.11 675.22 687.46 699.51 719.86 732.77 743.97 754.54 764.05 773.15 786.84 797.09 810.5 813.87 809.21 800.18 786.47 771.8 764.36 762.9 765.29 768.81 769.94 767.38 761.11 756.41 753.25 747.99 740.28 729.97 722.99 719.46 718.61 719.62 738.83 750.52 757.08 762.9 775.46 791.92 808.91 825.44 841.17 854.97 869.09 882.6 895.55 907.13 918.73 932.48 950.1 967.07 954.9 957.89 967.73 966.81 973.29 978.56 983.43 994.95 1052.2 1079.3 1077.8 1069.1 1056.6 1046.1 1052.7 1057.8 1075.4 1082.7 1097.4 1112.8 1128.9 1135.4 1144.1 1155.4
