ncols        43
nrows        37
xllcorner    218037.500000000000
yllcorner    2567877.500000000000
cellsize     20.000000000000
 572.4 558.2 546.4 537.8 524.2 513.9 513.3 509.7 506.3 503.9 506.6 507.4 505.2 500 503.6 506.2 508.6 518.2 518.9 520.2 522.5 523.7 524 527.6 528.8 533.5 546.5 547.1 548.5 549.3 553.4 554.2 560.2 575 588.2 598 612.2 620.7 624.7 627 628.9 630.8 632.9
570.8 561.4 550 537.7 527.8 516.9 514.9 509.8 506 503.5 506.3 507.3 506.3 500.1 502.7 505.4 516.8 517.7 519.4 521.4 522.4 523.1 526 527.2 529.7 537.4 547 547.9 549.6 551.8 553.4 555.8 559 572.4 586.3 595 606.7 615.6 624.9 627 629 631 633.2
569 562.3 552.3 540.9 533.5 521.5 515.1 510.5 505.7 504 506.4 507.3 507.1 502.8 500 504.3 512.8 514.4 520.3 522.2 522.4 523.4 526.2 527.1 530.2 542.6 548 549.4 551.4 552.2 554.3 556.6 561.6 566 580.9 586.2 599.3 611.6 623.1 627 629 631 633.4
568.7 563.4 554.9 548.6 537.3 525.6 515.4 510.3 504.8 504.5 506.4 507.2 507.7 504.9 500.2 503.4 509.3 518.9 521 522.4 522.7 526.1 525.9 527.1 530.9 547.5 549.7 551.4 553 554 556 557.9 560.7 564.4 575.3 582.7 595.3 604.3 614.2 626.7 628.8 631 633.5
565.9 559.1 556.2 550.3 535.7 526.1 516.3 508.3 504.5 505 505.7 506.6 507.4 506.9 500.3 502.7 508 519.3 520.8 521.8 522.1 525.1 525.4 526.9 533.8 549.2 550.5 552.2 553.4 554.6 556.3 558.5 559.3 565.3 573.5 579.4 586.8 594.8 603 612.4 620.7 628.9 633.4
562.6 558.8 556.3 549.4 536.6 527.2 517.5 507.7 504.5 504.5 505.2 506 506.7 505.5 500.4 502.7 506.9 519 519.9 520.7 521.4 524 526 526.9 537.9 549.7 550.7 551.9 553.2 554.3 556.1 558.1 559.4 567.7 578.4 582.3 588.1 596.1 606 613.6 617.8 625.9 632.5
561.7 558.8 555.2 549.5 540.7 527.3 517.9 507.2 504.2 504.4 505.1 505.6 505.8 505.3 500.4 500.3 506.3 519 519.7 520.4 520.6 523.5 526.2 527.3 537.3 550.4 551.1 552.2 553.5 554.9 556.6 558.1 559.2 573.8 581 587.8 593.5 604.6 617.5 624.4 627.7 629.7 632
565 559 551 547.1 542.4 529.2 515.9 506.2 504.4 504.6 504.7 504.7 505.1 504.8 500.5 500.2 506.3 519.7 519.7 520.3 521 523.6 526.3 528.6 541.8 550.8 552.1 553.1 554.4 555.9 557.5 558.8 559.4 568.1 581.9 593.4 602.9 613 620.5 628.3 629.4 630.8 633
563.3 557.3 546.9 542.5 539.7 527.8 513.2 506.1 504.4 504.3 504.2 504.4 504.9 505 500.7 500.2 507.2 520.3 519.3 519.7 520.9 524.9 526.6 532.2 547.8 551.3 552.5 553.7 555 556.8 558.5 559.9 560.8 562.6 575.7 590.4 605.5 618.8 625.6 629.2 630.8 631.9 634.2
559.8 555.3 546.6 538.7 537.6 528.7 511.8 507 503.8 503.7 504 504.6 505.4 505.3 500.7 500.2 508 519.1 518.7 519.5 522.4 526.3 527.1 536.2 550.6 551.9 552.9 554.1 556.4 558.4 559.4 560.8 561.5 564 567.5 578.7 597 605.7 613.2 623.7 630.3 631.8 635.2
560.5 554.1 544.6 534.8 531.1 526.5 509 507 503.5 503.5 504.1 504.7 505.3 505.2 500.5 500.2 508.7 518.2 518.3 519.2 523.1 526.9 527.5 543.2 551.6 552.7 553.5 554.6 555.3 559.4 560.4 561.6 562.5 565.7 567.1 571.7 584.1 592 599.7 609.6 617.8 625.6 636.1
560.7 551.1 543.4 538.4 528.8 524.7 508.4 505.8 503.3 503.4 503.9 504.5 505 504.7 499.8 500.1 509.6 517.5 517.9 519.8 526.7 526.9 532.4 550.4 552.4 553.2 553.5 554.5 555.3 559.4 560.8 562.3 563.2 566.9 566.7 567.8 573.9 577.4 583.1 595.7 603.8 608.6 612.6
555.7 546.9 541.8 538.6 531.3 524.5 510 506 503 503.2 503.6 504.1 504.9 504.2 499.1 500.1 512.7 517.6 518 524.6 526.9 527.4 543.1 552.8 552.8 553.4 553.3 556.3 555.9 558.7 560.5 562.2 563.5 566.9 567 568 569.6 570.2 572.7 578.2 586.8 590.1 593.2
548.1 540.7 537.9 535.6 526.6 520.9 510.8 506.5 502.7 502.9 503.3 503.7 504.2 501.5 498.6 500.1 517 517.8 525.9 527.2 527.1 529.7 550.1 553 553 553 552.7 557 557.2 557.7 559.6 561.5 568.1 568.1 567.7 565.5 565.3 565.5 566.1 573.5 576.8 578.8 580.1
543.8 540.6 538.2 533.9 523.1 519.2 510.8 506.7 502.3 502.8 503.1 503.4 503.5 498.5 498.7 502.7 517.8 524.4 527.5 527.5 528.2 533.4 549.8 553.4 553.5 554 553 547.4 547.5 548 551.1 550.8 555.8 556.7 560.3 562.2 561 561.4 565 566 569.3 571.7 572.7
544 540.1 536.2 526.4 521.7 519.4 510.3 506.4 502.9 502.7 503.2 503.4 502.8 497.8 498.7 508.6 518.1 527.6 527.8 528 529.1 534.8 550.5 551.2 551.5 552.7 546.9 544.7 546 546.5 547 546.8 546.8 550.4 554.3 555.1 560.8 561.5 564 563.7 563.5 565.5 567.6
542.9 537.3 531.1 522.7 521.6 519.5 512.6 507.5 504.7 501.7 502.9 502.8 500.6 497.8 498.1 515.1 522.2 528.3 528.6 529.1 530.7 537.2 550.1 550.1 550.1 542.9 539.8 544.9 545.7 545.8 546 548.1 552.6 550.1 550.2 554.2 557.1 560.9 561.9 560.5 566.7 570.5 570.8
541.1 534.8 528.2 521.7 521.5 519.1 513.7 508.9 504.6 501 502 502.3 498.4 497.6 502.5 518 518.5 523.7 528.6 531.5 532.8 535.8 549.4 542.8 537 536.8 538.5 541.7 545.2 545.1 541.7 547.9 563.3 565.5 562.9 555.9 555.5 557 558.3 563.9 574.8 577.2 578.3
538.6 532.2 525.5 521 519.8 516.7 513.5 509.2 504 500.6 501.6 501.8 497.7 497.7 510 517.4 518.3 520.9 523.2 525 533.4 536.2 532.5 532.2 533.8 532.6 533.7 536.5 540 545.6 546.7 555.3 574.8 580.1 581.3 579.6 574.3 571.8 574.4 578 582.1 584.9 585.8
536 528.6 521.9 519.8 518.8 514.8 513.8 509.3 506 500.7 501.4 499.2 497.8 498.9 515.4 518.1 520.7 522.9 524.1 526.7 528.1 530.7 530 531.5 530.7 534.9 535.6 538.5 542.9 547.8 548.9 563.1 583.3 591.2 594.3 596.8 596.4 590.1 586.3 585.7 586.6 587.7 588.4
531.9 523.7 518.6 518.6 515.6 514.3 512.5 509 506.4 500.3 500.4 497.8 498.3 506.3 515.7 518.7 521.8 523.8 525 527.6 529 528 530 528.8 531.6 533.7 535 541.8 548 551.1 554.2 570.5 589.1 598.4 603.5 604.6 604.4 604.1 597 593.9 593 591.5 590.8
526 517.3 517.5 516.8 514.2 514.5 510.9 508.5 504.8 500.4 498.3 497.8 498.8 515.6 516.7 519.9 521.7 523.7 525.8 525.8 526.1 527.7 524.8 529.3 531.4 533.8 539.7 547.4 556.1 561.1 561.2 573.3 589.5 607.9 618.8 618.1 618.3 615.9 608.4 610.8 609.2 604.3 600.2
520.3 516.9 516.8 513.9 513.7 514.3 509.9 508.2 501.7 500.4 497.2 497.5 500.5 513 515.1 516.2 519.2 523 523.6 523.9 524.9 522.7 527.7 529.8 534.2 538.7 545 558.1 561.3 562.9 567.1 577.5 589.4 612.9 628.8 628.9 627 624.4 620 620.5 617.8 614 610.1
516.8 516.8 516 513.3 513.4 513.7 509 507.7 500.4 498.5 497.1 497.7 502.6 507.5 509 512.7 513.5 516.6 518.8 520.7 521.2 526 528.4 535.2 537.7 544.9 555 560 561.9 564.9 571.8 583.2 595.9 615.8 629.9 637.1 636.2 634 631.6 631 625.1 619.9 616.4
516.9 516.8 513.3 513.1 513.3 513 508 504.6 499.7 496.7 497.4 499.2 513.1 514.2 515.5 517 519.2 520.5 522 523.1 525.2 527.9 534.8 543.9 549.1 554 560 562.2 564.4 564.9 576.6 585.2 601.8 618 632.1 643.1 644 642.8 641.3 638.3 633.1 626 622
516.7 515.9 513.5 513 512.5 511.9 507.3 500.5 497.9 496.7 497.6 503.9 515.9 515 516.6 521 525.1 523.2 523.8 525 530.6 533 543.1 550.8 556.5 561.7 562.3 562.8 564.9 564.9 579.7 590.9 606.2 620.2 634 646.1 653.3 653.7 652.6 651.3 644.5 633.4 626.6
516.3 514.4 513.7 512.9 512 507.5 500.2 498.7 496.5 496.5 497.3 511.7 521.2 521.9 523.1 523.5 523.6 524.8 529.1 530.7 540.8 542 543.2 551.4 562.2 562.5 563.3 565 565 567.4 578.4 593.7 609.9 623.4 636.4 649.4 660.6 665.4 665.4 663.7 657.3 645.1 635.1
514.3 512.4 513 512.4 511.5 502.2 498.4 497.4 496.4 496.4 502.6 522.3 522.9 523.5 524.3 524.6 525 528.6 534.7 541.9 542.3 542.9 544.1 550.8 563.4 563.1 564.8 567.3 568.1 572.5 579.8 595.9 612.2 625.6 639 652.9 664.5 666.8 666.7 667.3 662.2 654.1 646
512.3 512.3 512.6 511.9 505.8 498.2 497 495.8 496.1 497.5 514.9 523 523.7 524 524.2 525 525.3 532.3 543.1 543.5 543.7 544.3 546.2 555.7 562.5 564.6 566.8 570.2 572.2 573.4 585.4 600.3 615.6 628.7 642.3 656.6 667.5 667.7 667.5 667.8 667.1 663.3 657.4
511.5 511.6 511.5 510.4 498.9 496.5 495.5 495.4 496.4 509.9 519.7 523.3 523.9 523.7 524.4 525.2 526.8 545.3 545.2 545 544.9 545.8 552.5 559.3 563.6 566.3 568.4 571 574.1 578.1 590.9 606.1 620.2 632.1 646.2 660.6 669 668.5 667.9 667.5 667.7 668 668.1
510.8 510.3 510.6 503.5 495.6 495.5 495.1 495.3 506.6 518.1 522.1 523.3 523 522.3 523.6 525.6 538.3 547.2 547.3 546.7 546.3 547.9 557.8 561.5 566.4 568.2 569.3 571.8 575.3 584.7 598.3 613 624.4 634.8 649.6 663.9 669.6 669.2 668.5 667.9 667.8 668.2 667.9
511 509 508.1 496.7 495.6 495.1 494.8 508.5 517 518.7 522.8 523 522.5 522.3 523.6 528.5 549.2 550.1 549.5 548.5 547.9 552.7 560.1 561.8 569.6 569.7 571.2 576 582 594.3 607.3 619.5 628.2 638.5 653.9 668.7 670.2 669.7 669.4 669.3 669.2 669 671.4
509.2 508.5 499.4 494.7 494.9 494.2 507.6 513.3 518.2 520.2 522.3 522.3 522 522.3 524 543.3 551.1 551.5 550.9 550 549.9 555.5 560.7 563.3 571.4 573 577.6 583.9 593.8 604.3 615.6 625.6 633.8 645.4 662.1 671.5 671.2 670.7 670.8 670.9 670.7 670.4 678.9
508.1 506.2 494.7 494.1 494.5 502.3 511.9 518 517.8 521.9 522.1 522 522 522.8 533.5 552.8 552.9 552.4 551.7 551 553.1 557 562.7 570.5 576 581.6 586.4 592.1 604.2 613.8 623.4 630.6 638 647.2 662.7 672.8 672.8 672.4 672.1 672 671.5 676 691.4
507.2 496.5 493.7 494.8 496.3 510.3 512.8 517.6 518.7 521.6 521.4 521.6 521.5 522.8 550.2 555 554.9 553.9 552.6 553.8 555.3 559.3 570.5 576.7 588.2 592.1 591.7 603.6 616.7 627 632.5 633.1 637 645.1 655.8 672.3 674.2 673.8 673.5 673 672.5 687.2 696.5
498 493.6 494.7 495.2 508.9 511.9 517.7 517.8 520.9 520.9 521 521.1 522.5 539.5 556.1 556.8 556.4 555.9 555.5 557.8 561.6 568.3 576.8 589 598.3 600.4 609.9 619 628.2 629.4 631.9 634.7 638 644.8 656 670.4 675.2 674.7 673.9 673.1 676.8 690.8 706.3
493.5 494.3 495 504.1 511.3 513.3 517.8 517.9 520.8 520.9 520.7 522.1 532.2 557.5 558.5 558.1 557.5 557.4 563.7 565.5 570.2 576 586 595.5 600.6 607.3 615.5 627.1 630 630.4 632 637.8 641.7 647 655.2 670.3 675.6 675.3 675 675 683.7 693.2 708.9
